# .PCD v.7 - Point Cloud Data file format
VERSION .7
FIELDS x y z
SIZE 4 4 4
TYPE F F F
COUNT 1 1 1
WIDTH 1933
HEIGHT 1
VIEWPOINT 0 0 0 1 0 0 0
POINTS 1933
DATA ascii
0.0370886 0.388462 2.284
0.0434501 0.389479 2.29
0.0497574 0.389816 2.292
0.0560754 0.390152 2.294
0.0621325 0.388787 2.286
0.068325 0.388442 2.284
0.0743431 0.387246 2.277
0.0807472 0.388091 2.282
0.0871022 0.388595 2.285
0.0934324 0.388928 2.287
0.0993809 0.38773 2.28
0.105708 0.388063 2.282
0.112045 0.388395 2.284
0.118704 0.389747 2.292
0.124915 0.389568 2.291
0.131178 0.389559 2.291
0.1375 0.389719 2.292
0.143827 0.389879 2.293
0.149766 0.389018 2.288
0.155746 0.388327 2.284
0.162058 0.388485 2.285
0.16889 0.389833 2.293
0.176224 0.392201 2.307
0.183634 0.394568 2.321
0.191529 0.397784 2.34
-0.26095 0.398447 2.383
-0.251351 0.393615 2.354
-0.244407 0.392796 2.349
-0.237996 0.392813 2.349
-0.230894 0.391658 2.342
-0.223734 0.390336 2.334
-0.216803 0.389348 2.328
-0.210447 0.389363 2.328
-0.203914 0.389043 2.326
-0.197647 0.389224 2.327
-0.191126 0.388904 2.325
-0.184855 0.389084 2.326
-0.17781 0.387592 2.317
-0.170665 0.385764 2.306
-0.164578 0.386278 2.309
-0.158748 0.38746 2.316
-0.152682 0.388141 2.32
-0.146152 0.38765 2.317
-0.139638 0.387158 2.314
-0.133082 0.386499 2.31
-0.125999 0.384166 2.296
-0.119826 0.384509 2.298
-0.113444 0.384183 2.296
-0.10712 0.384024 2.295
-0.100229 0.381689 2.281
-0.0937442 0.380692 2.275
-0.0875226 0.380698 2.275
-0.0814794 0.381541 2.28
-0.0751115 0.380878 2.276
-0.0688258 0.380548 2.274
-0.0625783 0.380386 2.273
-0.0562617 0.379721 2.269
-0.0500109 0.37939 2.267
-0.0437128 0.378557 2.262
-0.0375581 0.378895 2.264
-0.031323 0.378395 2.261
-0.0251821 0.379067 2.265
-0.0190611 0.380574 2.274
-0.0128456 0.380743 2.275
-0.00660422 0.379739 2.269
-0.000395112 0.378233 2.26
0.00581085 0.37974 2.269
0.0120554 0.38091 2.276
0.0183383 0.382081 2.283
0.0245624 0.381744 2.281
0.0307756 0.381408 2.279
0.0369614 0.380903 2.276
0.0433394 0.382239 2.284
0.0496525 0.382738 2.287
0.0559085 0.382734 2.287
0.0620012 0.381725 2.281
0.0681506 0.381218 2.278
0.0742833 0.380711 2.275
0.080647 0.381375 2.279
0.0870705 0.382205 2.284
0.0934802 0.382868 2.288
0.0996062 0.382359 2.285
0.105854 0.382351 2.285
0.111906 0.381674 2.281
0.118143 0.381666 2.281
0.124488 0.381992 2.283
0.131015 0.382819 2.288
0.13727 0.382809 2.288
0.143461 0.382632 2.287
0.149515 0.382119 2.284
0.155348 0.381105 2.278
0.161715 0.381428 2.28
0.168313 0.382252 2.285
0.175931 0.385251 2.303
0.183093 0.387079 2.314
0.19056 0.389407 2.328
-0.261186 0.392289 2.385
-0.252222 0.388523 2.362
-0.244944 0.387224 2.354
-0.238114 0.386582 2.35
-0.230812 0.385118 2.341
-0.223558 0.383653 2.332
-0.216632 0.382681 2.326
-0.21019 0.382531 2.325
-0.203665 0.382217 2.323
-0.197406 0.382395 2.324
-0.190893 0.38208 2.322
-0.184232 0.381435 2.318
-0.177515 0.380625 2.313
-0.170825 0.379814 2.308
-0.165231 0.381472 2.318
-0.158691 0.380989 2.315
-0.152101 0.380342 2.311
-0.145658 0.380024 2.309
-0.139286 0.379869 2.308
-0.132804 0.379385 2.305
-0.125734 0.37709 2.291
-0.119261 0.376441 2.287
-0.113255 0.377272 2.292
-0.107128 0.377774 2.295
-0.100632 0.376958 2.29
-0.0941631 0.376142 2.285
-0.0878753 0.375984 2.284
-0.0816998 0.37632 2.286
-0.0753151 0.375667 2.282
-0.0688309 0.374355 2.274
-0.0625279 0.373866 2.271
-0.0562906 0.373706 2.27
-0.0500146 0.373216 2.267
-0.0437161 0.372396 2.262
-0.0375443 0.372564 2.263
-0.0313808 0.372895 2.265
-0.0252396 0.373721 2.27
-0.0190793 0.37471 2.276
-0.0128296 0.374053 2.272
-0.00658724 0.372572 2.263
-0.000393917 0.370926 2.253
0.00579335 0.372407 2.262
0.0120034 0.373065 2.266
0.0182673 0.374381 2.274
0.0244673 0.37405 2.272
0.0306968 0.374213 2.273
0.0368342 0.373387 2.268
0.0431149 0.374043 2.272
0.049439 0.374862 2.277
0.0557415 0.375353 2.28
0.0620057 0.375513 2.281
0.0681256 0.37485 2.277
0.0743214 0.37468 2.276
0.0807237 0.375497 2.281
0.0868481 0.374997 2.278
0.0931601 0.37532 2.28
0.0993955 0.375313 2.28
0.105631 0.375306 2.28
0.111571 0.37431 2.274
0.117633 0.373808 2.271
0.124224 0.374951 2.278
0.130624 0.375436 2.281
0.1368 0.375262 2.28
0.142907 0.374923 2.278
0.14933 0.375406 2.281
0.155564 0.375395 2.281
0.161585 0.37489 2.278
0.167809 0.374879 2.278
0.175103 0.37717 2.292
0.182236 0.378968 2.303
0.189591 0.381094 2.316
0.199048 0.387169 2.353
-0.260437 0.384663 2.378
-0.252453 0.382416 2.364
-0.244856 0.380653 2.353
-0.237927 0.37986 2.348
-0.230729 0.378582 2.34
-0.223765 0.377627 2.334
-0.216367 0.375862 2.323
-0.209753 0.375391 2.32
-0.203241 0.375082 2.318
-0.19691 0.375095 2.318
-0.190578 0.375109 2.318
-0.184006 0.374636 2.315
-0.177835 0.374973 2.317
-0.170837 0.373528 2.308
-0.164958 0.374511 2.314
-0.15836 0.373875 2.31
-0.152112 0.374048 2.311
-0.145605 0.373573 2.308
-0.139115 0.373097 2.305
-0.132237 0.371488 2.295
-0.125358 0.369717 2.284
-0.1188 0.368754 2.278
-0.112818 0.369572 2.283
-0.106808 0.370389 2.288
-0.100815 0.371368 2.294
-0.0944584 0.371051 2.292
-0.0881894 0.371058 2.292
-0.0820274 0.37155 2.295
-0.0755186 0.370422 2.288
-0.0688964 0.368484 2.276
-0.0623121 0.366384 2.263
-0.0561211 0.366389 2.263
-0.0499741 0.366716 2.265
-0.0437772 0.36672 2.265
-0.0376466 0.36737 2.269
-0.0313969 0.366887 2.266
-0.0252414 0.367537 2.27
-0.0190304 0.367538 2.27
-0.0127741 0.366244 2.262
-0.00655279 0.364464 2.251
-0.000392547 0.363493 2.245
0.0057784 0.365274 2.256
0.0119989 0.36673 2.265
0.0182124 0.367053 2.267
0.0244153 0.367051 2.267
0.030564 0.366402 2.263
0.0368044 0.366885 2.266
0.0429662 0.366558 2.264
0.0493124 0.367688 2.271
0.0555255 0.367684 2.271
0.0617656 0.367842 2.272
0.067951 0.367675 2.271
0.0744247 0.368966 2.279
0.0806588 0.36896 2.279
0.0868163 0.36863 2.277
0.0930034 0.368462 2.276
0.0995334 0.369588 2.283
0.105777 0.369581 2.283
0.111824 0.368925 2.279
0.117849 0.36827 2.275
0.124179 0.368585 2.277
0.130461 0.368738 2.278
0.136389 0.367919 2.273
0.142478 0.367585 2.271
0.148947 0.368222 2.275
0.155575 0.369183 2.281
0.161951 0.369495 2.283
0.167674 0.368351 2.276
0.174352 0.36931 2.282
0.181299 0.370754 2.291
0.18895 0.373492 2.308
0.197116 0.377039 2.33
-0.261659 0.379937 2.389
-0.25279 0.376455 2.367
-0.244457 0.373609 2.349
-0.237031 0.372035 2.339
-0.230054 0.371096 2.333
-0.223684 0.371111 2.333
-0.216475 0.369694 2.324
-0.209948 0.369391 2.322
-0.203518 0.369246 2.321
-0.197263 0.369418 2.322
-0.191002 0.369591 2.323
-0.184258 0.368808 2.318
-0.177924 0.368821 2.318
-0.171071 0.367719 2.311
-0.165255 0.368844 2.318
-0.158713 0.368378 2.315
-0.15232 0.36823 2.314
-0.145552 0.367126 2.307
-0.138823 0.366022 2.3
-0.131958 0.36444 2.29
-0.125093 0.362699 2.279
-0.118287 0.360957 2.268
-0.112184 0.361283 2.27
-0.106069 0.361609 2.272
-0.100383 0.363527 2.284
-0.0940942 0.363374 2.283
-0.0881188 0.364495 2.29
-0.0818545 0.364501 2.29
-0.075491 0.364029 2.287
-0.0688408 0.361965 2.274
-0.0624268 0.360855 2.267
-0.0562492 0.361019 2.268
-0.0500659 0.361182 2.269
-0.043877 0.361344 2.27
-0.0376327 0.361029 2.268
-0.031413 0.360872 2.267
-0.0251987 0.360715 2.266
-0.0189647 0.36008 2.262
-0.0127298 0.358808 2.254
-0.00652997 0.357057 2.243
-0.000391526 0.356421 2.239
0.00575577 0.357694 2.247
0.0119733 0.359763 2.26
0.0181655 0.359921 2.261
0.0243416 0.35976 2.26
0.0304446 0.358803 2.254
0.0367421 0.360074 2.262
0.0429503 0.36023 2.263
0.0492508 0.361023 2.268
0.055285 0.359905 2.261
0.0615525 0.360378 2.264
0.0678362 0.360851 2.267
0.0742994 0.36212 2.275
0.0804876 0.361955 2.274
0.0865174 0.361153 2.269
0.0927648 0.361306 2.27
0.0993225 0.362572 2.278
0.10546 0.362247 2.276
0.111587 0.361921 2.274
0.117805 0.361913 2.274
0.124133 0.362223 2.276
0.130184 0.361736 2.273
0.136039 0.360772 2.267
0.142048 0.360285 2.264
0.148958 0.362025 2.275
0.155722 0.363288 2.283
0.162175 0.363754 2.286
0.167907 0.362629 2.279
0.174058 0.362458 2.278
0.180441 0.362764 2.28
0.187735 0.364819 2.293
0.196452 0.36942 2.322
-0.262334 0.374369 2.395
-0.252914 0.370165 2.368
-0.244057 0.366586 2.345
-0.236946 0.365507 2.338
-0.230464 0.365366 2.337
-0.224179 0.365538 2.338
-0.216769 0.363833 2.327
-0.210143 0.363378 2.324
-0.203619 0.363079 2.322
-0.197276 0.363093 2.322
-0.190933 0.363106 2.322
-0.184111 0.36218 2.316
-0.177629 0.36188 2.314
-0.171083 0.361423 2.311
-0.16491 0.361747 2.313
-0.158519 0.361602 2.312
-0.152067 0.3613 2.31
-0.145436 0.360528 2.305
-0.138591 0.35913 2.296
-0.131622 0.357262 2.284
-0.125211 0.356802 2.281
-0.118556 0.355559 2.273
-0.11234 0.355567 2.273
-0.106077 0.355418 2.272
-0.100214 0.356677 2.28
-0.0940184 0.35684 2.281
-0.0879711 0.357629 2.286
-0.0817173 0.357635 2.286
-0.0753643 0.357171 2.283
-0.0689365 0.356237 2.277
-0.0625964 0.355616 2.273
-0.0563276 0.355308 2.271
-0.0500474 0.354842 2.268
-0.0438028 0.354532 2.266
-0.0375856 0.354379 2.265
-0.0313044 0.353442 2.259
-0.0250893 0.352975 2.256
-0.0188486 0.351725 2.248
-0.0127025 0.351883 2.249
-0.0065217 0.350475 2.24
-0.000392428 0.351101 2.244
0.00575874 0.351727 2.248
0.0119795 0.35376 2.261
0.0181427 0.35329 2.258
0.0243003 0.352975 2.256
0.0303252 0.351252 2.245
0.0366472 0.352971 2.256
0.0429534 0.354063 2.263
0.0492543 0.354842 2.268
0.0551666 0.352961 2.256
0.0611762 0.352018 2.25
0.0673922 0.352327 2.252
0.0739454 0.354199 2.264
0.0803517 0.355132 2.27
0.0867524 0.355909 2.275
0.0930575 0.356215 2.277
0.0993731 0.356521 2.279
0.105375 0.355732 2.274
0.111398 0.355099 2.27
0.11771 0.355404 2.272
0.123978 0.355552 2.273
0.130022 0.355074 2.27
0.135868 0.354126 2.264
0.142058 0.354116 2.264
0.148706 0.355201 2.271
0.155255 0.355973 2.276
0.161689 0.356431 2.279
0.167697 0.35595 2.276
0.17407 0.356252 2.278
0.180374 0.356396 2.279
0.187502 0.358104 2.29
0.19545 0.361218 2.31
-0.261803 0.367077 2.39
-0.25293 0.363714 2.368
-0.244801 0.361273 2.352
-0.237671 0.360213 2.345
-0.231071 0.359922 2.343
-0.224481 0.359629 2.341
-0.217529 0.358722 2.335
-0.210609 0.357814 2.329
-0.204072 0.357521 2.327
-0.19746 0.357073 2.324
-0.190863 0.356625 2.321
-0.184283 0.356177 2.318
-0.178102 0.356497 2.32
-0.171909 0.356816 2.322
-0.165349 0.356366 2.319
-0.158598 0.355455 2.313
-0.151814 0.35439 2.306
-0.145257 0.353785 2.302
-0.138359 0.352258 2.292
-0.131573 0.350884 2.283
-0.125385 0.351047 2.284
-0.118878 0.350287 2.279
-0.112348 0.349372 2.273
-0.105991 0.348919 2.27
-0.100045 0.349848 2.276
-0.0938601 0.350009 2.277
-0.0876309 0.350015 2.277
-0.0813298 0.349713 2.275
-0.0751715 0.350026 2.277
-0.0688203 0.349416 2.273
-0.0625733 0.349267 2.272
-0.0563067 0.348964 2.27
-0.0499627 0.348045 2.264
-0.0437093 0.347587 2.261
-0.0374887 0.347283 2.259
-0.0312789 0.346978 2.257
-0.0250466 0.346211 2.252
-0.0188332 0.34529 2.246
-0.012726 0.346367 2.253
-0.00654837 0.345753 2.249
-0.000393505 0.345907 2.25
0.00575915 0.345599 2.248
0.0119432 0.346521 2.254
0.0180797 0.345905 2.25
0.0242374 0.345904 2.25
0.0303139 0.344979 2.244
0.0366173 0.346514 2.254
0.0429375 0.347741 2.262
0.049236 0.348507 2.267
0.0551949 0.346966 2.257
0.0612077 0.34604 2.251
0.0674268 0.346342 2.253
0.0739506 0.348028 2.264
0.0804281 0.349253 2.272
0.0867584 0.349708 2.275
0.0926961 0.348626 2.268
0.098944 0.348773 2.269
0.105104 0.348612 2.268
0.11121 0.348297 2.266
0.117563 0.348751 2.269
0.123768 0.348742 2.269
0.129916 0.34858 2.268
0.135698 0.347495 2.261
0.141754 0.347178 2.259
0.148258 0.347937 2.264
0.15472 0.348541 2.268
0.160991 0.348684 2.269
0.167414 0.349134 2.272
0.174082 0.350044 2.278
0.180624 0.350647 2.282
0.187023 0.350942 2.284
0.194448 0.35308 2.298
0.204657 0.359981 2.343
-0.260724 0.359057 2.38
-0.252946 0.357262 2.368
-0.245025 0.355166 2.354
-0.23799 0.354277 2.348
-0.231776 0.354593 2.35
-0.225263 0.354457 2.349
-0.218289 0.353567 2.343
-0.211075 0.352222 2.334
-0.20426 0.351481 2.329
-0.197133 0.350136 2.32
-0.190383 0.349395 2.315
-0.184136 0.349558 2.316
-0.178267 0.350476 2.322
-0.171773 0.350185 2.32
-0.164647 0.348536 2.309
-0.157786 0.34734 2.301
-0.151364 0.347048 2.299
-0.144762 0.346303 2.294
-0.138006 0.345105 2.286
-0.131582 0.344661 2.283
-0.125613 0.345425 2.288
-0.119199 0.34498 2.285
-0.112603 0.343931 2.278
-0.105998 0.342731 2.27
-0.100008 0.343493 2.275
-0.0937429 0.343349 2.274
-0.0873675 0.342751 2.27
-0.0811209 0.342606 2.269
-0.0748795 0.34246 2.268
-0.0686434 0.342314 2.267
-0.0624675 0.342469 2.268
-0.0562859 0.342624 2.269
-0.0499662 0.341873 2.264
-0.043635 0.340819 2.257
-0.0373751 0.340067 2.252
-0.0311702 0.339616 2.249
-0.0250706 0.340373 2.254
-0.0188764 0.339922 2.251
-0.0127551 0.34098 2.258
-0.00655174 0.339773 2.25
-0.000394757 0.34083 2.257
0.00577492 0.340377 2.254
0.0119441 0.340376 2.254
0.0180488 0.339167 2.246
0.0241637 0.338713 2.243
0.0303565 0.339315 2.247
0.0366036 0.340218 2.253
0.0428645 0.340971 2.258
0.0491091 0.341421 2.261
0.0553455 0.341719 2.263
0.0614023 0.34096 2.258
0.0675812 0.340956 2.258
0.0738904 0.341555 2.262
0.0804691 0.34321 2.273
0.0868026 0.343657 2.276
0.0927434 0.342594 2.269
0.0987328 0.341833 2.264
0.10488 0.341675 2.263
0.111217 0.34212 2.266
0.117623 0.342717 2.27
0.123886 0.342859 2.271
0.12981 0.342096 2.266
0.135767 0.341483 2.262
0.141952 0.341474 2.262
0.148203 0.341615 2.263
0.154321 0.341454 2.262
0.160434 0.341292 2.261
0.167057 0.342187 2.267
0.173941 0.343534 2.276
0.180557 0.344277 2.281
0.187199 0.345019 2.286
0.194207 0.346365 2.295
0.202137 0.349219 2.314
-0.260631 0.352423 2.379
-0.253176 0.351106 2.37
-0.245769 0.349788 2.361
-0.238614 0.348767 2.354
-0.232383 0.349078 2.356
-0.225661 0.348648 2.353
-0.218489 0.347477 2.345
-0.210908 0.345565 2.332
-0.204449 0.34543 2.331
-0.197486 0.344406 2.324
-0.190724 0.343677 2.319
-0.184387 0.34369 2.319
-0.178279 0.344146 2.322
-0.17134 0.342972 2.314
-0.164301 0.341501 2.304
-0.157728 0.340919 2.3
-0.151374 0.340781 2.299
-0.144709 0.339901 2.293
-0.137835 0.338428 2.283
-0.131591 0.338437 2.283
-0.125621 0.339187 2.288
-0.119259 0.338899 2.286
-0.112561 0.337572 2.277
-0.106192 0.337135 2.274
-0.100191 0.337883 2.279
-0.0937493 0.337148 2.274
-0.087335 0.336413 2.269
-0.0808404 0.335233 2.261
-0.0747856 0.335831 2.265
-0.0685269 0.33554 2.263
-0.062334 0.335544 2.263
-0.0560664 0.335103 2.26
-0.0498372 0.33481 2.258
-0.0436186 0.334517 2.256
-0.0374109 0.334223 2.254
-0.0312139 0.333929 2.252
-0.0251613 0.335414 2.262
-0.0189448 0.33497 2.259
-0.0127447 0.334527 2.256
-0.00654928 0.333489 2.249
-0.00039391 0.333934 2.252
0.00576251 0.333489 2.249
0.0119078 0.333192 2.247
0.0180581 0.333191 2.247
0.0242192 0.333338 2.248
0.0303856 0.333484 2.249
0.0365737 0.333779 2.251
0.0426966 0.333479 2.249
0.0488518 0.333476 2.249
0.055227 0.334807 2.258
0.0615425 0.335545 2.263
0.0676756 0.335244 2.261
0.0739281 0.335535 2.263
0.0801205 0.33553 2.263
0.0864271 0.335969 2.266
0.0925044 0.335518 2.263
0.0988267 0.335957 2.266
0.104887 0.335505 2.263
0.111323 0.336239 2.268
0.117682 0.336676 2.271
0.124112 0.337261 2.275
0.130163 0.336808 2.272
0.136076 0.336058 2.267
0.142213 0.3359 2.266
0.148278 0.335594 2.264
0.15399 0.334546 2.257
0.160232 0.334684 2.258
0.166994 0.335859 2.266
0.174029 0.337478 2.277
0.18041 0.337763 2.279
0.18713 0.33864 2.285
0.194474 0.340554 2.298
0.202936 0.344246 2.323
-0.261305 0.346812 2.385
-0.25394 0.345665 2.377
-0.245889 0.343499 2.362
-0.238933 0.342787 2.357
-0.232595 0.342947 2.358
-0.226155 0.342962 2.358
-0.218783 0.341521 2.348
-0.211374 0.339935 2.337
-0.20455 0.339221 2.332
-0.197668 0.338361 2.326
-0.190901 0.337646 2.321
-0.18424 0.337077 2.317
-0.1776 0.336506 2.313
-0.170685 0.335354 2.305
-0.163813 0.334201 2.297
-0.157395 0.33392 2.295
-0.150857 0.333348 2.291
-0.144466 0.333067 2.289
-0.137904 0.332349 2.284
-0.131715 0.332503 2.285
-0.125795 0.333385 2.291
-0.11958 0.333538 2.292
-0.112816 0.332091 2.282
-0.106106 0.330643 2.272
-0.0998456 0.330504 2.271
-0.0937556 0.330947 2.274
-0.0874948 0.330808 2.273
-0.0810962 0.330086 2.268
-0.0748567 0.329945 2.267
-0.0686527 0.32995 2.267
-0.0625035 0.330246 2.269
-0.0561199 0.329231 2.262
-0.0498626 0.328798 2.259
-0.0436023 0.328219 2.255
-0.03743 0.328221 2.255
-0.0312022 0.327642 2.251
-0.0250963 0.328371 2.256
-0.0189042 0.328082 2.254
-0.0127343 0.328083 2.254
-0.00654681 0.32721 2.248
-0.000393762 0.327647 2.251
0.00576802 0.327647 2.251
0.0119298 0.327646 2.251
0.0181076 0.327936 2.253
0.0242208 0.327207 2.248
0.0304012 0.327496 2.25
0.0365274 0.327203 2.248
0.0427185 0.327491 2.25
0.0488552 0.327343 2.249
0.0552063 0.328504 2.257
0.0614379 0.328791 2.259
0.0675904 0.328641 2.258
0.0735737 0.327763 2.252
0.0798073 0.328049 2.254
0.0859752 0.328043 2.254
0.092388 0.328911 2.26
0.0986589 0.329195 2.262
0.104848 0.329188 2.262
0.111134 0.329472 2.264
0.117535 0.330047 2.268
0.124012 0.330766 2.273
0.129942 0.330031 2.268
0.136085 0.329876 2.267
0.142222 0.329722 2.266
0.14855 0.330003 2.268
0.154137 0.328684 2.259
0.160242 0.328528 2.258
0.166931 0.329536 2.265
0.173963 0.331125 2.276
0.180264 0.331259 2.277
0.186814 0.331829 2.281
0.194063 0.333562 2.293
0.203037 0.338059 2.324
-0.262417 0.341737 2.395
-0.254169 0.33947 2.379
-0.246425 0.337773 2.367
-0.239455 0.337075 2.362
-0.233004 0.33709 2.362
-0.225882 0.336105 2.355
-0.218703 0.334977 2.347
-0.211568 0.333849 2.339
-0.204826 0.333291 2.335
-0.197766 0.332162 2.327
-0.190831 0.331175 2.32
-0.183774 0.329902 2.311
-0.177227 0.329485 2.308
-0.170548 0.328783 2.303
-0.163467 0.327223 2.292
-0.156788 0.326377 2.286
-0.150274 0.325816 2.282
-0.14416 0.326111 2.284
-0.137853 0.325977 2.283
-0.131608 0.325986 2.283
-0.125528 0.326423 2.286
-0.119223 0.326288 2.285
-0.112774 0.325724 2.281
-0.106066 0.324303 2.271
-0.0997643 0.324025 2.269
-0.0936793 0.324459 2.272
-0.0875391 0.324751 2.274
-0.0812089 0.324328 2.271
-0.0750598 0.324619 2.273
-0.0687481 0.324195 2.27
-0.0623975 0.323485 2.265
-0.0559003 0.321776 2.253
-0.0496011 0.320922 2.247
-0.0434892 0.321211 2.249
-0.0373993 0.321785 2.253
-0.031232 0.321787 2.253
-0.0250535 0.321646 2.252
-0.0188635 0.321219 2.249
-0.0127295 0.321791 2.253
-0.00655599 0.321507 2.251
-0.000393963 0.32165 2.252
0.00576585 0.321364 2.25
0.01192 0.32122 2.249
0.0181008 0.321648 2.252
0.0242225 0.321075 2.248
0.0303762 0.321073 2.248
0.0364649 0.3205 2.244
0.0426834 0.321068 2.248
0.0488367 0.321065 2.248
0.0551122 0.321776 2.253
0.061306 0.321915 2.254
0.0674152 0.321625 2.252
0.0735786 0.32162 2.252
0.079671 0.32133 2.25
0.0858283 0.321324 2.25
0.0920671 0.321604 2.252
0.0986654 0.323026 2.262
0.105133 0.323876 2.268
0.111436 0.324154 2.27
0.11775 0.324432 2.272
0.124074 0.32471 2.274
0.130466 0.32513 2.277
0.136755 0.325264 2.278
0.142734 0.324684 2.274
0.148494 0.323675 2.267
0.154079 0.32238 2.258
0.160324 0.322513 2.259
0.166942 0.323359 2.265
0.174051 0.325061 2.277
0.180196 0.324907 2.276
0.186417 0.324896 2.276
0.192975 0.325455 2.28
0.201128 0.328582 2.302
-0.263309 0.336328 2.403
-0.254719 0.333684 2.384
-0.247377 0.33258 2.376
-0.241092 0.332874 2.378
-0.233907 0.331909 2.371
-0.226279 0.330243 2.359
-0.219183 0.329277 2.352
-0.212305 0.328591 2.347
-0.205278 0.327624 2.34
-0.197694 0.325676 2.326
-0.190103 0.323588 2.311
-0.18315 0.322479 2.303
-0.177008 0.322771 2.305
-0.170484 0.322362 2.302
-0.163548 0.321112 2.293
-0.156456 0.319442 2.281
-0.149889 0.318751 2.276
-0.143601 0.31862 2.275
-0.137379 0.318629 2.275
-0.131156 0.318638 2.275
-0.124987 0.318786 2.276
-0.118656 0.318514 2.274
-0.112682 0.319222 2.279
-0.10626 0.318669 2.275
-0.0995949 0.317275 2.265
-0.0934793 0.317561 2.267
-0.0872754 0.317567 2.267
-0.0812142 0.318133 2.271
-0.0749327 0.317858 2.269
-0.0687224 0.317862 2.269
-0.0623741 0.317166 2.264
-0.0560529 0.31647 2.259
-0.0497809 0.315913 2.255
-0.0435887 0.315776 2.254
-0.037352 0.315218 2.25
-0.0311648 0.31494 2.248
-0.0249661 0.314381 2.244
-0.0188396 0.314663 2.246
-0.0127133 0.315224 2.25
-0.00656516 0.315785 2.254
-0.000393814 0.315365 2.251
0.0057611 0.314945 2.248
0.011889 0.314244 2.243
0.0180618 0.314803 2.247
0.0241486 0.313961 2.241
0.0303377 0.31452 2.245
0.0364348 0.314097 2.242
0.0427052 0.315075 2.249
0.0488616 0.315072 2.249
0.0551647 0.31591 2.255
0.06131 0.315766 2.254
0.0674796 0.315762 2.254
0.0736162 0.315617 2.253
0.0798886 0.316032 2.256
0.0860247 0.315887 2.255
0.0922775 0.316161 2.257
0.098541 0.316435 2.259
0.105186 0.317829 2.269
0.111394 0.317822 2.269
0.117498 0.317535 2.267
0.123482 0.316966 2.263
0.130188 0.318219 2.272
0.136763 0.319051 2.278
0.142868 0.318762 2.276
0.148569 0.317632 2.268
0.154566 0.317202 2.265
0.160973 0.317612 2.268
0.1671 0.317462 2.267
0.173374 0.317591 2.268
0.180128 0.31856 2.275
0.186592 0.318969 2.278
0.193241 0.319657 2.283
0.200354 0.321045 2.293
-0.263983 0.330599 2.409
-0.255696 0.328418 2.393
-0.249058 0.328296 2.392
-0.242424 0.328174 2.391
-0.235697 0.327914 2.389
-0.227061 0.324908 2.367
-0.219103 0.322725 2.351
-0.211504 0.320954 2.338
-0.204764 0.320418 2.334
-0.197451 0.31892 2.323
-0.18995 0.31701 2.309
-0.182764 0.315511 2.298
-0.176712 0.315934 2.301
-0.170125 0.315396 2.297
-0.163345 0.314445 2.29
-0.156328 0.312944 2.279
-0.149766 0.312267 2.274
-0.143421 0.312002 2.272
-0.137266 0.312148 2.273
-0.130933 0.311882 2.271
-0.124611 0.311615 2.269
-0.118299 0.311349 2.267
-0.11264 0.312867 2.278
-0.106453 0.313011 2.279
-0.100041 0.312468 2.275
-0.0934441 0.311238 2.266
-0.087281 0.311381 2.267
-0.0809691 0.310975 2.264
-0.0746072 0.310293 2.259
-0.0683633 0.310023 2.257
-0.0622403 0.310302 2.259
-0.0560813 0.310443 2.26
-0.0498946 0.310446 2.26
-0.0436302 0.3099 2.256
-0.0373212 0.308803 2.248
-0.0311529 0.308668 2.247
-0.0250234 0.308945 2.249
-0.0188995 0.309496 2.253
-0.0127198 0.309222 2.251
-0.00655393 0.309085 2.25
-0.00039349 0.308948 2.249
0.00575379 0.308399 2.245
0.0118791 0.307849 2.241
0.0180227 0.307985 2.242
0.0241286 0.307571 2.239
0.0303532 0.308531 2.246
0.0364534 0.308117 2.243
0.0427459 0.309213 2.251
0.0488648 0.308936 2.249
0.0552906 0.310443 2.26
0.0613412 0.309753 2.255
0.0674241 0.309337 2.252
0.0736209 0.309469 2.253
0.0800355 0.310426 2.26
0.0862591 0.310558 2.261
0.0924062 0.310415 2.26
0.0985037 0.310134 2.258
0.105007 0.311089 2.265
0.11145 0.311769 2.27
0.117506 0.31135 2.267
0.123708 0.311342 2.267
0.130369 0.312432 2.275
0.137432 0.314347 2.289
0.143254 0.313376 2.282
0.148775 0.311857 2.271
0.154781 0.311435 2.268
0.161054 0.311563 2.269
0.167258 0.311552 2.269
0.173538 0.311679 2.27
0.18014 0.312355 2.275
0.186768 0.31303 2.28
0.193423 0.313704 2.285
0.201065 0.315889 2.301
-0.256459 0.322833 2.4
-0.249906 0.322848 2.4
-0.243149 0.322594 2.398
-0.236599 0.322608 2.398
-0.227842 0.319528 2.375
-0.219769 0.317254 2.358
-0.211607 0.314711 2.339
-0.20425 0.313243 2.328
-0.197463 0.312583 2.323
-0.189797 0.310441 2.307
-0.183093 0.30978 2.302
-0.176416 0.309118 2.297
-0.170209 0.309263 2.298
-0.163569 0.308601 2.293
-0.156612 0.307265 2.283
-0.149973 0.306467 2.277
-0.14343 0.305803 2.272
-0.137456 0.30635 2.276
-0.130826 0.305416 2.269
-0.124729 0.305693 2.271
-0.118306 0.305162 2.267
-0.112449 0.306112 2.274
-0.106086 0.305715 2.271
-0.0999154 0.305856 2.272
-0.0936974 0.305862 2.272
-0.0874021 0.305599 2.27
-0.0809027 0.304527 2.262
-0.0743478 0.303051 2.251
-0.0682465 0.303325 2.253
-0.0622443 0.304137 2.259
-0.0561346 0.304544 2.262
-0.0498536 0.304009 2.258
-0.0435943 0.303474 2.254
-0.0373568 0.302938 2.25
-0.0311688 0.30267 2.248
-0.0250361 0.302942 2.25
-0.0189259 0.303751 2.256
-0.0127319 0.303348 2.253
-0.00653396 0.302002 2.243
-0.000392116 0.301733 2.241
0.00573878 0.301464 2.239
0.0118799 0.301732 2.241
0.0180078 0.301597 2.24
0.0241194 0.301326 2.238
0.0303416 0.302267 2.245
0.0365532 0.302803 2.249
0.0427107 0.302801 2.249
0.0488897 0.302932 2.25
0.0551718 0.303602 2.255
0.0612635 0.303195 2.252
0.0673086 0.302652 2.248
0.0735276 0.302917 2.25
0.0799697 0.303989 2.258
0.0861883 0.304118 2.259
0.0923711 0.304113 2.259
0.0984227 0.303703 2.256
0.104875 0.304504 2.262
0.111359 0.305305 2.268
0.117617 0.305433 2.269
0.123825 0.305425 2.269
0.130262 0.305956 2.273
0.137081 0.307293 2.283
0.143012 0.306612 2.278
0.148981 0.306064 2.274
0.154859 0.305382 2.269
0.161064 0.305372 2.269
0.1669 0.304689 2.264
0.173396 0.305217 2.268
0.179755 0.305475 2.27
0.186861 0.306944 2.281
0.193519 0.307605 2.286
0.201689 0.310554 2.308
-0.257116 0.317078 2.406
-0.250545 0.317092 2.406
-0.243569 0.31658 2.402
-0.235528 0.314617 2.387
-0.227376 0.31239 2.37
-0.219782 0.310821 2.358
-0.21162 0.308329 2.339
-0.204087 0.306628 2.326
-0.196965 0.305453 2.317
-0.189891 0.304279 2.308
-0.183025 0.303367 2.301
-0.176119 0.302323 2.293
-0.169627 0.301938 2.29
-0.163008 0.301289 2.285
-0.156485 0.300771 2.281
-0.150246 0.30078 2.281
-0.143754 0.300262 2.277
-0.137646 0.300534 2.279
-0.131007 0.299619 2.272
-0.124901 0.299891 2.274
-0.118731 0.30003 2.275
-0.112308 0.29951 2.271
-0.105673 0.29833 2.262
-0.0995699 0.2986 2.264
-0.0934971 0.299001 2.267
-0.0875231 0.299798 2.273
-0.0809436 0.298485 2.263
-0.0744515 0.297302 2.254
-0.0682811 0.297307 2.254
-0.062386 0.29863 2.264
-0.0561133 0.298238 2.261
-0.0497684 0.297318 2.254
-0.0435197 0.296793 2.25
-0.037409 0.297191 2.253
-0.0312124 0.29693 2.251
-0.0250711 0.297195 2.253
-0.0189187 0.297461 2.255
-0.0127328 0.297198 2.253
-0.00653729 0.296011 2.244
-0.000392315 0.295748 2.242
0.00576221 0.296539 2.248
0.011939 0.297066 2.252
0.0180652 0.296405 2.247
0.0241748 0.295877 2.243
0.030303 0.295743 2.242
0.0364905 0.296137 2.245
0.0427134 0.296662 2.249
0.0489145 0.296923 2.251
0.0551264 0.297183 2.253
0.0611858 0.296652 2.249
0.0672829 0.296384 2.247
0.0734995 0.296644 2.249
0.0797268 0.296903 2.251
0.085774 0.296502 2.248
0.0920089 0.29676 2.25
0.0981235 0.296622 2.249
0.104603 0.297539 2.256
0.111268 0.298851 2.266
0.117884 0.299899 2.274
0.124542 0.300947 2.282
0.130328 0.299884 2.274
0.136849 0.300535 2.279
0.142581 0.299472 2.271
0.148662 0.299199 2.269
0.154322 0.298135 2.261
0.160293 0.29773 2.258
0.166541 0.297852 2.259
0.17333 0.298896 2.267
0.179607 0.299018 2.268
0.186135 0.299534 2.272
0.192938 0.300445 2.279
0.200915 0.30307 2.299
-0.256703 0.309997 2.402
-0.250143 0.310012 2.402
-0.242772 0.308994 2.394
-0.235048 0.307458 2.382
-0.226909 0.305277 2.365
-0.219981 0.304645 2.36
-0.212175 0.302721 2.345
-0.204362 0.300668 2.329
-0.196636 0.298614 2.313
-0.189655 0.297593 2.305
-0.182956 0.296958 2.3
-0.176283 0.296323 2.295
-0.16986 0.296075 2.293
-0.163089 0.295181 2.286
-0.156563 0.294674 2.282
-0.150255 0.294554 2.281
-0.143573 0.293659 2.274
-0.137171 0.29328 2.271
-0.130496 0.292255 2.263
-0.124964 0.293813 2.275
-0.118686 0.293691 2.274
-0.112216 0.293052 2.269
-0.105539 0.291767 2.259
-0.099444 0.292032 2.261
-0.0934204 0.292554 2.265
-0.0872204 0.29256 2.265
-0.0806982 0.291403 2.256
-0.074324 0.290632 2.25
-0.0682854 0.291153 2.254
-0.0622245 0.291674 2.258
-0.055943 0.291161 2.254
-0.0496611 0.290518 2.249
-0.0434257 0.290005 2.245
-0.0374113 0.29104 2.253
-0.031242 0.291043 2.253
-0.0250504 0.290786 2.251
-0.0188276 0.289883 2.244
-0.0126657 0.289496 2.241
-0.00652022 0.28911 2.238
-0.00039269 0.289885 2.244
0.00576514 0.290531 2.249
0.0119238 0.29053 2.249
0.0180583 0.290142 2.246
0.024144 0.289365 2.24
0.0302778 0.289363 2.24
0.0364115 0.289361 2.24
0.0425831 0.289617 2.242
0.0488089 0.290131 2.246
0.0548851 0.289741 2.243
0.0611351 0.290254 2.247
0.067317 0.290379 2.248
0.0735367 0.290633 2.25
0.0796255 0.29037 2.248
0.0857793 0.290365 2.248
0.0920145 0.290618 2.25
0.0983477 0.291129 2.254
0.104656 0.29151 2.257
0.111422 0.293053 2.269
0.118046 0.294079 2.277
0.124495 0.294589 2.281
0.129877 0.292644 2.266
0.136017 0.292507 2.265
0.141962 0.291982 2.261
0.148082 0.291844 2.26
0.153444 0.290285 2.248
0.159877 0.290792 2.252
0.166478 0.291557 2.258
0.173417 0.292838 2.268
0.179222 0.292182 2.263
0.185737 0.292688 2.267
0.192442 0.293452 2.273
0.20049 0.296151 2.294
0.210184 0.301045 2.332
-0.257786 0.304706 2.412
-0.250158 0.303457 2.402
-0.243191 0.302966 2.398
-0.235061 0.300958 2.382
-0.227594 0.299708 2.372
-0.22046 0.298836 2.365
-0.213635 0.298343 2.361
-0.205252 0.295575 2.339
-0.196648 0.292301 2.313
-0.189255 0.29067 2.3
-0.182489 0.289922 2.294
-0.176294 0.290059 2.295
-0.169721 0.289563 2.291
-0.163099 0.288941 2.286
-0.156572 0.288445 2.282
-0.150264 0.288328 2.281
-0.143456 0.287199 2.272
-0.136696 0.286069 2.263
-0.130504 0.286077 2.263
-0.124641 0.286843 2.269
-0.118589 0.28723 2.272
-0.111876 0.285972 2.262
-0.105732 0.286105 2.263
-0.0994061 0.285732 2.26
-0.0933848 0.286244 2.264
-0.0870331 0.285743 2.26
-0.0807031 0.285243 2.256
-0.0744276 0.284868 2.253
-0.0682895 0.284999 2.254
-0.0622283 0.285509 2.258
-0.0560457 0.285512 2.258
-0.0497966 0.285136 2.255
-0.0435251 0.284507 2.25
-0.037397 0.284762 2.252
-0.0312578 0.285017 2.254
-0.025063 0.284766 2.252
-0.0187952 0.28325 2.24
-0.0126326 0.282618 2.235
-0.00652644 0.283251 2.24
-0.000393764 0.284516 2.25
0.00577574 0.284895 2.253
0.0119139 0.284136 2.247
0.0180273 0.283503 2.242
0.0241131 0.282869 2.237
0.0302256 0.282741 2.236
0.0363162 0.282486 2.234
0.0424907 0.282863 2.237
0.048638 0.282987 2.238
0.054864 0.283489 2.242
0.0611389 0.284118 2.247
0.0673211 0.284241 2.248
0.0734759 0.284236 2.248
0.0795241 0.283853 2.245
0.0857845 0.284227 2.248
0.092061 0.284601 2.251
0.0985282 0.28548 2.258
0.10494 0.286106 2.263
0.111429 0.286858 2.269
0.117898 0.287484 2.274
0.12423 0.287729 2.276
0.129885 0.286457 2.266
0.136145 0.286576 2.267
0.142347 0.286568 2.267
0.148418 0.286306 2.265
0.153795 0.284781 2.253
0.160454 0.285656 2.26
0.167077 0.286405 2.266
0.173274 0.286395 2.266
0.178916 0.2855 2.259
0.184928 0.285237 2.257
0.191691 0.28611 2.264
0.19954 0.2885 2.283
0.208484 0.292279 2.313
-0.25887 0.29936 2.422
-0.250692 0.29752 2.407
-0.243306 0.296545 2.399
-0.235568 0.295075 2.387
-0.229142 0.295212 2.388
-0.222151 0.294606 2.383
-0.215367 0.294248 2.38
-0.206843 0.291416 2.357
-0.197169 0.286729 2.319
-0.189348 0.284514 2.301
-0.182579 0.283783 2.295
-0.176304 0.283793 2.295
-0.169879 0.283556 2.293
-0.16318 0.282824 2.287
-0.156718 0.282462 2.284
-0.149812 0.281234 2.274
-0.143022 0.280129 2.265
-0.136583 0.279643 2.261
-0.130627 0.280145 2.265
-0.124484 0.280277 2.266
-0.117969 0.279541 2.26
-0.111537 0.27893 2.255
-0.105645 0.279678 2.261
-0.0995439 0.279932 2.263
-0.0935141 0.280432 2.267
-0.0869998 0.279448 2.259
-0.0806363 0.278834 2.254
-0.074399 0.278592 2.252
-0.0682633 0.27872 2.253
-0.0621494 0.278971 2.255
-0.0559001 0.278603 2.252
-0.0497996 0.278977 2.255
-0.0436051 0.278857 2.254
-0.0373993 0.278612 2.252
-0.0312042 0.278366 2.25
-0.0249978 0.277873 2.246
-0.0187879 0.277008 2.239
-0.0126107 0.276019 2.231
-0.00650935 0.276391 2.234
-0.000392037 0.277134 2.24
0.00575045 0.277505 2.243
0.0118616 0.276762 2.237
0.0179801 0.276637 2.236
0.0240391 0.275894 2.23
0.0302139 0.276511 2.235
0.0362534 0.27589 2.23
0.0423983 0.276135 2.232
0.0484888 0.276009 2.231
0.0547694 0.276872 2.238
0.0610881 0.277734 2.245
0.0672952 0.277978 2.247
0.0735783 0.278468 2.251
0.0796705 0.278216 2.249
0.0860949 0.279078 2.256
0.092271 0.279072 2.256
0.0988395 0.28018 2.265
0.105225 0.280669 2.269
0.111828 0.281652 2.277
0.11806 0.281645 2.277
0.124237 0.281514 2.276
0.12995 0.280394 2.267
0.136573 0.281252 2.274
0.142795 0.281244 2.274
0.148885 0.280988 2.272
0.154418 0.279742 2.262
0.160747 0.279981 2.264
0.166718 0.2796 2.261
0.172902 0.27959 2.261
0.178688 0.278962 2.256
0.184857 0.278952 2.256
0.191702 0.27993 2.264
0.199289 0.281897 2.28
0.207414 0.284482 2.301
-0.260701 0.294804 2.439
-0.251331 0.291675 2.413
-0.243928 0.290722 2.405
-0.236272 0.289405 2.394
-0.229635 0.289297 2.393
-0.22179 0.287617 2.379
-0.21556 0.287992 2.382
-0.207381 0.285706 2.363
-0.198371 0.28209 2.333
-0.190017 0.279199 2.309
-0.182908 0.278001 2.299
-0.176468 0.277769 2.297
-0.169519 0.27669 2.288
-0.162832 0.275974 2.282
-0.156247 0.275378 2.277
-0.149688 0.274782 2.272
-0.14303 0.273944 2.265
-0.136954 0.274194 2.267
-0.130923 0.274565 2.27
-0.124491 0.274088 2.266
-0.11782 0.273006 2.257
-0.111395 0.272408 2.252
-0.105511 0.27314 2.258
-0.0994178 0.273388 2.26
-0.0934783 0.27412 2.266
-0.0870434 0.273399 2.26
-0.0807484 0.273041 2.257
-0.0745686 0.273045 2.257
-0.0683885 0.27305 2.257
-0.0622082 0.273053 2.257
-0.0559531 0.272694 2.254
-0.0498688 0.273181 2.258
-0.0437044 0.273305 2.259
-0.0374347 0.272702 2.254
-0.031109 0.271373 2.243
-0.0249102 0.27077 2.238
-0.0187723 0.27065 2.237
-0.0126397 0.27053 2.236
-0.00651265 0.27041 2.235
-0.00039136 0.270531 2.236
0.00573541 0.270652 2.237
0.011857 0.27053 2.236
0.0179651 0.270287 2.234
0.0240406 0.269802 2.23
0.0301616 0.269922 2.231
0.0362393 0.269678 2.229
0.0424388 0.27028 2.234
0.0485134 0.270036 2.232
0.0547237 0.270517 2.236
0.0609556 0.270997 2.24
0.0672093 0.271477 2.244
0.0735826 0.27232 2.251
0.0796752 0.272074 2.249
0.0860236 0.272674 2.254
0.0923582 0.273152 2.258
0.0988016 0.273873 2.264
0.105185 0.274351 2.268
0.111491 0.274586 2.27
0.117964 0.275185 2.275
0.124245 0.275299 2.276
0.130301 0.274928 2.273
0.136461 0.2748 2.272
0.142866 0.275155 2.275
0.149156 0.275267 2.276
0.15511 0.274775 2.272
0.161112 0.274403 2.269
0.166949 0.273789 2.264
0.172759 0.273175 2.259
0.178778 0.272923 2.257
0.185113 0.273155 2.259
0.191543 0.273507 2.262
0.199038 0.27531 2.277
0.207336 0.278079 2.3
-0.260929 0.288382 2.441
-0.25197 0.285797 2.419
-0.244043 0.284274 2.406
-0.236976 0.283696 2.401
-0.229935 0.283118 2.396
-0.221989 0.281358 2.381
-0.214848 0.280542 2.374
-0.207481 0.279372 2.364
-0.199317 0.27702 2.344
-0.190933 0.274194 2.32
-0.183157 0.272077 2.302
-0.176324 0.27126 2.295
-0.169306 0.270087 2.285
-0.162699 0.269505 2.28
-0.155981 0.268687 2.273
-0.149236 0.26775 2.265
-0.143102 0.267876 2.266
-0.136961 0.268002 2.267
-0.130873 0.268246 2.269
-0.124443 0.26778 2.265
-0.117826 0.266841 2.257
-0.111599 0.26673 2.256
-0.105377 0.266618 2.255
-0.0994235 0.267215 2.26
-0.0932774 0.267338 2.261
-0.0868944 0.266752 2.256
-0.0805384 0.266166 2.251
-0.0744738 0.266525 2.254
-0.0683016 0.266529 2.254
-0.0621291 0.266533 2.254
-0.055857 0.266063 2.25
-0.0498054 0.266657 2.255
-0.0435908 0.266424 2.253
-0.0373206 0.265716 2.247
-0.030986 0.264181 2.234
-0.0248449 0.263946 2.232
-0.0187734 0.264539 2.237
-0.0126574 0.264776 2.239
-0.0065276 0.264895 2.24
-0.000391208 0.264304 2.235
0.00572292 0.263949 2.232
0.0118206 0.263594 2.229
0.01795 0.263948 2.232
0.0240959 0.264301 2.235
0.0301904 0.264063 2.233
0.0362251 0.26347 2.228
0.0423652 0.263704 2.23
0.0485379 0.264056 2.233
0.0546534 0.264053 2.233
0.0608231 0.264286 2.235
0.0672132 0.265347 2.244
0.0736196 0.266289 2.252
0.0799278 0.266758 2.256
0.0861049 0.266753 2.256
0.0924453 0.267221 2.26
0.0986764 0.267334 2.261
0.105052 0.267801 2.265
0.111497 0.268386 2.27
0.118281 0.26968 2.281
0.124525 0.269673 2.281
0.130309 0.26872 2.273
0.136048 0.267767 2.265
0.142184 0.267641 2.264
0.148247 0.267396 2.262
0.154367 0.267269 2.261
0.160482 0.267142 2.26
0.166737 0.267252 2.261
0.172768 0.267006 2.259
0.178946 0.266996 2.259
0.185205 0.267104 2.26
0.191723 0.267567 2.264
0.19835 0.268147 2.269
0.206716 0.270972 2.293
-0.260729 0.281487 2.439
-0.251775 0.278961 2.417
-0.243954 0.277589 2.405
-0.237383 0.277602 2.405
-0.229948 0.276575 2.396
-0.221721 0.274509 2.378
-0.214497 0.273598 2.37
-0.207667 0.273147 2.366
-0.199668 0.27108 2.348
-0.19152 0.268666 2.327
-0.183804 0.266713 2.31
-0.176794 0.265684 2.301
-0.169463 0.264077 2.287
-0.162636 0.263162 2.279
-0.155853 0.262247 2.271
-0.149442 0.261909 2.268
-0.143173 0.261801 2.267
-0.136969 0.261809 2.267
-0.130765 0.261817 2.267
-0.12456 0.261824 2.267
-0.117885 0.260791 2.258
-0.111605 0.260566 2.256
-0.105429 0.260572 2.256
-0.0996051 0.261502 2.264
-0.0933239 0.261276 2.262
-0.0869378 0.260704 2.257
-0.0804714 0.259784 2.249
-0.0743458 0.259904 2.25
-0.0682751 0.260255 2.253
-0.0622153 0.260721 2.257
-0.0559843 0.260493 2.255
-0.0498083 0.260496 2.255
-0.0435353 0.259921 2.25
-0.0373061 0.259461 2.246
-0.0310293 0.258423 2.237
-0.0249353 0.258771 2.24
-0.0187828 0.258542 2.238
-0.0126751 0.259005 2.242
-0.00654546 0.259467 2.246
-0.000393156 0.259467 2.246
0.0057412 0.258659 2.239
0.011816 0.257387 2.228
0.017935 0.257618 2.23
0.0240864 0.258078 2.234
0.0302056 0.258077 2.234
0.0361784 0.257035 2.225
0.0423487 0.257495 2.229
0.0485407 0.257955 2.233
0.0547544 0.258414 2.237
0.0607993 0.258064 2.234
0.0670372 0.258523 2.238
0.0733622 0.259212 2.244
0.0797197 0.259901 2.25
0.0861098 0.260589 2.256
0.0925324 0.261277 2.262
0.0988128 0.261503 2.264
0.105336 0.262306 2.271
0.1117 0.262646 2.274
0.118184 0.263217 2.279
0.124422 0.26321 2.279
0.130431 0.262741 2.275
0.135936 0.261348 2.263
0.142003 0.26111 2.261
0.147796 0.260409 2.255
0.154103 0.260631 2.257
0.160277 0.260623 2.257
0.166968 0.261422 2.264
0.172778 0.260836 2.259
0.178639 0.260364 2.255
0.18456 0.260008 2.252
0.191141 0.260575 2.257
0.197399 0.26068 2.258
0.204563 0.261939 2.269
-0.260956 0.275052 2.441
-0.252309 0.272924 2.422
-0.244677 0.27181 2.412
-0.238185 0.271935 2.413
-0.230823 0.271046 2.405
-0.223038 0.269592 2.392
-0.215957 0.268928 2.386
-0.209171 0.268601 2.383
-0.200614 0.265906 2.359
-0.19153 0.26231 2.327
-0.183575 0.260065 2.307
-0.17642 0.258834 2.296
-0.169473 0.257829 2.287
-0.162645 0.256936 2.279
-0.156136 0.256494 2.275
-0.149516 0.255825 2.269
-0.14318 0.255608 2.267
-0.136614 0.254939 2.261
-0.130541 0.255171 2.263
-0.124127 0.254727 2.259
-0.117735 0.254283 2.255
-0.111414 0.253951 2.252
-0.105248 0.253957 2.252
-0.0993906 0.254752 2.259
-0.0932878 0.254983 2.261
-0.0870196 0.254762 2.259
-0.0805832 0.253977 2.252
-0.074383 0.253869 2.251
-0.0683698 0.254436 2.256
-0.0623014 0.254891 2.26
-0.0560371 0.254556 2.257
-0.049789 0.254221 2.254
-0.043499 0.253546 2.248
-0.0372916 0.25321 2.245
-0.0310865 0.252761 2.241
-0.0250258 0.253552 2.248
-0.018851 0.253328 2.246
-0.0126984 0.253329 2.246
-0.00654583 0.253329 2.246
-0.000394228 0.254006 2.252
0.00575691 0.253216 2.245
0.0118325 0.251637 2.231
0.0179279 0.25141 2.229
0.0240447 0.251522 2.23
0.0302073 0.251972 2.234
0.0361641 0.250842 2.224
0.042313 0.251178 2.227
0.0484999 0.251627 2.231
0.0548309 0.252639 2.24
0.0608843 0.252297 2.237
0.0671009 0.252632 2.24
0.0732355 0.252628 2.24
0.0796178 0.253414 2.247
0.0859618 0.253973 2.252
0.0925375 0.255096 2.262
0.0990365 0.25588 2.269
0.105713 0.257002 2.279
0.112148 0.257447 2.283
0.118606 0.257892 2.287
0.124811 0.257773 2.286
0.131011 0.257653 2.285
0.136244 0.255729 2.268
0.142074 0.255045 2.262
0.147739 0.254135 2.254
0.153701 0.253789 2.251
0.159789 0.253668 2.25
0.166534 0.254561 2.258
0.172634 0.254439 2.257
0.178649 0.254204 2.255
0.184406 0.253631 2.25
0.190982 0.254185 2.255
0.19706 0.254062 2.254
0.204304 0.255404 2.266
-0.260648 0.268055 2.438
-0.252426 0.266419 2.423
-0.245197 0.265772 2.417
-0.237704 0.264794 2.408
-0.230739 0.264367 2.404
-0.22277 0.262729 2.389
-0.216511 0.26307 2.392
-0.209533 0.262531 2.387
-0.200965 0.259902 2.363
-0.191704 0.256172 2.329
-0.183982 0.254312 2.312
-0.176429 0.252561 2.296
-0.168963 0.25081 2.28
-0.16194 0.249609 2.269
-0.155732 0.249617 2.269
-0.149655 0.249845 2.271
-0.143567 0.250073 2.273
-0.136863 0.2492 2.265
-0.130606 0.249097 2.264
-0.124079 0.248444 2.258
-0.117898 0.24845 2.258
-0.11137 0.247686 2.251
-0.105254 0.247802 2.252
-0.0993079 0.248358 2.257
-0.0934579 0.249243 2.265
-0.087294 0.249358 2.266
-0.0809096 0.248813 2.261
-0.0746514 0.248597 2.259
-0.0684039 0.24838 2.257
-0.0622773 0.248604 2.259
-0.0559905 0.248167 2.255
-0.0498138 0.24817 2.255
-0.0436175 0.248062 2.254
-0.0373933 0.247734 2.251
-0.0311992 0.247516 2.249
-0.0250383 0.247518 2.249
-0.0188604 0.247299 2.247
-0.0126709 0.246639 2.241
-0.00653744 0.24686 2.243
-0.00039355 0.24741 2.248
0.00576235 0.2473 2.247
0.0118491 0.245869 2.234
0.0179611 0.245758 2.233
0.0240568 0.245537 2.231
0.0302225 0.245976 2.235
0.0362474 0.245313 2.229
0.0424293 0.245751 2.233
0.048546 0.245749 2.233
0.054736 0.246076 2.236
0.0608877 0.246183 2.237
0.0670446 0.24629 2.238
0.0733049 0.246726 2.242
0.0795513 0.247052 2.245
0.0859283 0.247708 2.251
0.0925016 0.248804 2.261
0.0991292 0.249899 2.271
0.105997 0.251434 2.285
0.112302 0.251538 2.286
0.118923 0.252302 2.293
0.125146 0.252186 2.292
0.131305 0.251959 2.29
0.136551 0.250082 2.273
0.142646 0.249854 2.271
0.148468 0.249186 2.265
0.154256 0.248518 2.259
0.16001 0.24785 2.253
0.166248 0.247951 2.254
0.172796 0.248493 2.259
0.17842 0.247713 2.252
0.18417 0.247154 2.247
0.190484 0.247364 2.249
0.197158 0.248014 2.255
0.204675 0.249654 2.27
0.212553 0.251622 2.288
-0.261196 0.261932 2.443
-0.252959 0.260336 2.428
-0.245615 0.259598 2.421
-0.238407 0.258967 2.415
-0.231423 0.25855 2.411
-0.224273 0.257918 2.405
-0.217156 0.257285 2.399
-0.209368 0.255794 2.385
-0.20004 0.252265 2.352
-0.191303 0.249272 2.324
-0.183435 0.247244 2.305
-0.175977 0.245644 2.29
-0.169046 0.244687 2.281
-0.162163 0.24373 2.272
-0.155603 0.243202 2.267
-0.149268 0.242995 2.265
-0.143259 0.243325 2.268
-0.136991 0.243225 2.267
-0.130844 0.243339 2.268
-0.12436 0.242809 2.263
-0.118165 0.242815 2.263
-0.111673 0.242178 2.257
-0.1054 0.241969 2.255
-0.0992692 0.242081 2.256
-0.0933803 0.242838 2.263
-0.0872216 0.24295 2.264
-0.0809855 0.242847 2.263
-0.0746554 0.242421 2.259
-0.0684378 0.242318 2.258
-0.0623633 0.242751 2.262
-0.0559935 0.242003 2.255
-0.0497722 0.241791 2.253
-0.043523 0.241364 2.249
-0.0372956 0.240937 2.245
-0.0311177 0.240724 2.243
-0.0249505 0.240511 2.241
-0.0188195 0.240619 2.242
-0.0126772 0.24062 2.242
-0.00652905 0.240406 2.24
-0.000393045 0.240943 2.245
0.00574471 0.240406 2.24
0.0118603 0.239976 2.236
0.0179701 0.239761 2.234
0.0241012 0.239867 2.235
0.0302106 0.239758 2.234
0.0362819 0.239435 2.231
0.0424506 0.239754 2.234
0.0484834 0.239323 2.23
0.0545675 0.239213 2.229
0.0608365 0.239854 2.235
0.0671381 0.240494 2.241
0.0735049 0.241242 2.248
0.0795909 0.241023 2.246
0.0860093 0.24177 2.253
0.0925065 0.242624 2.261
0.0992654 0.244013 2.274
0.106002 0.245188 2.285
0.112259 0.245183 2.285
0.119085 0.246357 2.296
0.125425 0.246458 2.297
0.131656 0.246344 2.296
0.136799 0.244299 2.277
0.142717 0.243755 2.272
0.148672 0.243318 2.268
0.154059 0.242023 2.256
0.160019 0.241693 2.253
0.166109 0.241577 2.252
0.172958 0.242534 2.261
0.178509 0.241667 2.253
0.184097 0.240907 2.246
0.190493 0.241219 2.249
0.19743 0.242175 2.258
0.205136 0.243988 2.275
0.213121 0.246015 2.294
-0.260995 0.255049 2.441
-0.253284 0.254017 2.431
-0.246337 0.253715 2.428
-0.238616 0.252578 2.417
-0.231914 0.252485 2.416
-0.224471 0.251555 2.407
-0.217438 0.251043 2.402
-0.208588 0.248337 2.376
-0.199709 0.24542 2.348
-0.191395 0.243026 2.325
-0.183603 0.241153 2.307
-0.17614 0.239594 2.292
-0.169202 0.238662 2.283
-0.162385 0.237834 2.275
-0.155886 0.237424 2.271
-0.149473 0.237118 2.268
-0.143329 0.23723 2.269
-0.137058 0.237133 2.268
-0.130908 0.237244 2.269
-0.124367 0.236623 2.263
-0.118171 0.236629 2.263
-0.111778 0.236217 2.259
-0.105639 0.236327 2.26
-0.0993623 0.236123 2.258
-0.0934264 0.236755 2.264
-0.087072 0.236342 2.26
-0.0808465 0.236242 2.259
-0.0745601 0.235932 2.256
-0.0683504 0.235831 2.255
-0.0622563 0.236148 2.258
-0.0558722 0.235314 2.25
-0.0496644 0.235108 2.248
-0.0434673 0.234901 2.246
-0.0373142 0.234903 2.246
-0.0311054 0.234487 2.242
-0.0248739 0.233651 2.234
-0.0187869 0.234071 2.238
-0.0126609 0.234176 2.239
-0.00652939 0.234281 2.24
-0.000392366 0.234386 2.241
0.00573475 0.233863 2.236
0.0118663 0.233967 2.237
0.0179871 0.233862 2.236
0.0241887 0.234593 2.243
0.0302528 0.233964 2.237
0.0363001 0.233439 2.232
0.0424148 0.233437 2.232
0.0485294 0.233435 2.232
0.0544969 0.232805 2.226
0.0608397 0.233743 2.235
0.0672015 0.234576 2.243
0.0736723 0.235618 2.253
0.0795951 0.234882 2.246
0.0860137 0.23561 2.253
0.0925522 0.236547 2.262
0.0994015 0.238111 2.277
0.106193 0.23936 2.289
0.112559 0.239564 2.291
0.119402 0.240708 2.302
0.125596 0.240493 2.3
0.131662 0.240068 2.296
0.136806 0.238074 2.277
0.14285 0.237754 2.274
0.14868 0.237119 2.268
0.153999 0.235752 2.255
0.160098 0.23564 2.254
0.166117 0.235423 2.252
0.172661 0.235937 2.257
0.178042 0.234883 2.247
0.183778 0.234351 2.242
0.190249 0.23476 2.246
0.196828 0.235273 2.251
0.204515 0.23704 2.268
0.21276 0.239329 2.29
-0.25919 0.24665 2.424
-0.253088 0.247171 2.429
-0.246248 0.246979 2.427
-0.239812 0.247194 2.429
-0.232405 0.246391 2.421
-0.225041 0.245588 2.413
-0.217177 0.244174 2.399
-0.20974 0.243166 2.389
-0.200995 0.24053 2.363
-0.191733 0.237078 2.329
-0.183692 0.23495 2.308
-0.176379 0.233635 2.295
-0.16973 0.233134 2.29
-0.163036 0.232532 2.284
-0.156442 0.23203 2.279
-0.14981 0.231427 2.273
-0.14321 0.230823 2.267
-0.137005 0.23083 2.267
-0.130742 0.230735 2.266
-0.124428 0.230538 2.264
-0.118073 0.230238 2.261
-0.111783 0.230041 2.259
-0.105551 0.229944 2.258
-0.0993234 0.229847 2.257
-0.0933486 0.230361 2.262
-0.0868838 0.229653 2.255
-0.0806001 0.229352 2.252
-0.0743987 0.229254 2.251
-0.0683842 0.229767 2.256
-0.0623697 0.230381 2.262
-0.0559744 0.229569 2.254
-0.0497332 0.229266 2.251
-0.0434501 0.228658 2.245
-0.0372995 0.22866 2.245
-0.0310654 0.22805 2.239
-0.0248975 0.227746 2.236
-0.0187962 0.228053 2.239
-0.0126842 0.228461 2.243
-0.00653264 0.228258 2.241
-0.000392386 0.228258 2.241
0.00573761 0.22785 2.237
0.0118775 0.228054 2.239
0.0179961 0.227849 2.237
0.0241576 0.228154 2.24
0.0302408 0.227745 2.236
0.0362856 0.227234 2.231
0.042436 0.227436 2.233
0.0485971 0.227637 2.235
0.0547201 0.227634 2.235
0.0610061 0.228243 2.241
0.0674146 0.229156 2.25
0.0738068 0.229865 2.257
0.07967 0.228945 2.248
0.0860563 0.229552 2.254
0.0925978 0.230464 2.263
0.0994065 0.231885 2.277
0.105967 0.232593 2.284
0.112565 0.2333 2.291
0.119616 0.234822 2.306
0.126039 0.235019 2.308
0.131726 0.233893 2.297
0.136993 0.232155 2.28
0.142543 0.231028 2.269
0.148425 0.230512 2.264
0.15387 0.229384 2.253
0.160035 0.229377 2.253
0.166052 0.229165 2.251
0.172134 0.229055 2.25
0.177655 0.228232 2.242
0.18305 0.227307 2.233
0.189919 0.228214 2.242
0.196138 0.228307 2.243
0.204165 0.230434 2.264
0.212398 0.232664 2.286
-0.260485 0.241214 2.436
-0.25237 0.23984 2.422
-0.246056 0.240148 2.425
-0.239824 0.240556 2.429
-0.232896 0.24027 2.426
-0.224772 0.238696 2.41
-0.217278 0.237716 2.4
-0.210364 0.23733 2.396
-0.202706 0.236052 2.383
-0.192977 0.232198 2.344
-0.184258 0.229334 2.315
-0.176618 0.227658 2.298
-0.169515 0.226577 2.287
-0.162829 0.22599 2.281
-0.156656 0.226097 2.282
-0.149949 0.225411 2.275
-0.143343 0.224823 2.269
-0.13677 0.224236 2.263
-0.130517 0.224143 2.262
-0.124269 0.22405 2.261
-0.11787 0.22366 2.257
-0.111541 0.223368 2.254
-0.105089 0.222779 2.248
-0.0990642 0.223081 2.251
-0.0931057 0.223581 2.256
-0.0869267 0.223585 2.256
-0.0807473 0.22359 2.256
-0.0745015 0.223395 2.254
-0.0683573 0.223498 2.255
-0.0621247 0.223303 2.253
-0.0558282 0.22281 2.248
-0.0497799 0.223308 2.253
-0.0435297 0.222914 2.249
-0.037401 0.223114 2.251
-0.0310808 0.222026 2.24
-0.024921 0.221829 2.238
-0.0187972 0.221929 2.239
-0.0126792 0.222227 2.242
-0.00653005 0.222029 2.24
-0.00039188 0.221831 2.238
0.0057379 0.221732 2.237
0.0118993 0.222326 2.243
0.0180453 0.222326 2.243
0.024202 0.222424 2.244
0.0302829 0.221927 2.239
0.0363525 0.221529 2.235
0.0424761 0.221527 2.235
0.04873 0.222119 2.241
0.0549431 0.222414 2.244
0.0612269 0.222907 2.249
0.0675079 0.2233 2.253
0.0740394 0.224387 2.264
0.0800284 0.223788 2.258
0.0862133 0.223784 2.258
0.0927252 0.224573 2.266
0.0993678 0.225559 2.276
0.105786 0.22595 2.28
0.112374 0.226639 2.287
0.11957 0.228417 2.305
0.126373 0.229303 2.314
0.132249 0.228504 2.306
0.13736 0.226515 2.286
0.142612 0.224923 2.27
0.148629 0.224619 2.267
0.154219 0.22372 2.258
0.160043 0.223217 2.253
0.165986 0.222912 2.25
0.171607 0.222211 2.243
0.177505 0.221905 2.24
0.18314 0.221302 2.234
0.189844 0.221987 2.241
0.196847 0.222968 2.251
0.203994 0.224048 2.262
0.211479 0.225425 2.276
-0.261994 0.235905 2.45
-0.253007 0.233798 2.428
-0.245662 0.233135 2.421
-0.240427 0.234494 2.435
-0.234059 0.234794 2.438
-0.226182 0.233553 2.425
-0.217469 0.231348 2.402
-0.210989 0.231454 2.403
-0.203821 0.230789 2.396
-0.193645 0.22656 2.352
-0.184266 0.223004 2.315
-0.176242 0.220894 2.293
-0.169375 0.220131 2.285
