# .PCD v.7 - Point Cloud Data file format
VERSION .7
FIELDS x y z
SIZE 4 4 4
TYPE F F F
COUNT 1 1 1
WIDTH 1839
HEIGHT 1
VIEWPOINT 0 0 0 1 0 0 0
POINTS 1839
DATA ascii
-0.321335 0.114818 2.442
-0.310674 0.113367 2.411
-0.30346 0.113139 2.406
-0.297507 0.113381 2.411
-0.291164 0.113482 2.413
-0.283393 0.113018 2.403
-0.275906 0.112648 2.395
-0.269586 0.112748 2.397
-0.263804 0.113083 2.404
-0.257233 0.113089 2.404
-0.251391 0.113425 2.411
-0.245306 0.113665 2.416
-0.238798 0.113718 2.417
-0.227096 0.11123 2.364
-0.214844 0.108318 2.302
-0.20601 0.107005 2.274
-0.198558 0.106351 2.26
-0.191437 0.105838 2.249
-0.184211 0.105231 2.236
-0.177215 0.104717 2.225
-0.170586 0.104392 2.218
-0.164069 0.104114 2.212
-0.158084 0.104164 2.213
-0.151955 0.104121 2.212
-0.145766 0.10403 2.21
-0.13927 0.103704 2.203
-0.132873 0.103425 2.197
-0.127028 0.10357 2.2
-0.120836 0.103431 2.197
-0.114503 0.103152 2.191
-0.108054 0.102731 2.182
-0.102215 0.102875 2.185
-0.096051 0.102689 2.181
-0.0902389 0.102879 2.185
-0.0839803 0.102552 2.178
-0.0782612 0.102883 2.185
-0.0723049 0.102932 2.186
-0.0663732 0.103028 2.188
-0.0604026 0.103077 2.189
-0.0543518 0.102984 2.187
-0.0484222 0.103127 2.19
-0.0423791 0.103033 2.188
-0.0364798 0.103317 2.194
-0.0305058 0.103459 2.197
-0.024493 0.103507 2.198
-0.0184577 0.10346 2.197
-0.0124335 0.103461 2.197
-0.00642967 0.103791 2.204
-0.000386376 0.103838 2.205
0.0056624 0.103885 2.206
0.0116901 0.103696 2.202
0.0177602 0.103884 2.206
0.0239169 0.104355 2.216
0.0301013 0.104731 2.224
0.0363132 0.105059 2.231
0.0425253 0.105294 2.236
0.0488516 0.105717 2.245
0.0553006 0.10628 2.257
0.0617606 0.10675 2.267
0.0680354 0.106842 2.269
0.074419 0.107076 2.274
0.081007 0.107545 2.284
0.0877641 0.108155 2.297
0.0946331 0.108812 2.311
0.102059 0.109987 2.336
0.106882 0.108383 2.302
0.111912 0.107157 2.276
0.117889 0.106918 2.271
0.123728 0.106586 2.264
0.129873 0.106536 2.263
0.136133 0.10658 2.264
0.142837 0.106953 2.272
0.148666 0.106667 2.266
0.154803 0.106616 2.265
0.160224 0.106095 2.254
0.166691 0.106279 2.258
0.173026 0.106369 2.26
0.17945 0.106506 2.263
0.185972 0.10669 2.267
0.192007 0.106592 2.265
0.198905 0.106963 2.273
-0.312227 0.1073 2.423
-0.304728 0.106996 2.416
-0.297884 0.106914 2.414
-0.291049 0.106832 2.412
-0.283517 0.106484 2.404
-0.277179 0.106578 2.406
-0.271617 0.106983 2.415
-0.265126 0.107033 2.416
-0.258415 0.106994 2.415
-0.252126 0.107133 2.418
-0.246429 0.107537 2.427
-0.239495 0.107409 2.424
-0.228158 0.105243 2.375
-0.214569 0.10188 2.299
-0.205833 0.100688 2.272
-0.198562 0.100161 2.26
-0.192037 0.0999879 2.256
-0.185122 0.0995932 2.247
-0.178255 0.0991983 2.238
-0.171052 0.0985817 2.224
-0.164073 0.0980535 2.212
-0.157516 0.0977468 2.205
-0.151615 0.097839 2.207
-0.145835 0.0980197 2.211
-0.139526 0.0978456 2.207
-0.132997 0.097494 2.199
-0.1268 0.0973639 2.196
-0.120674 0.0972781 2.194
-0.11461 0.0972364 2.193
-0.108056 0.0967512 2.182
-0.102264 0.096931 2.186
-0.0962294 0.0968889 2.185
-0.0904062 0.0970685 2.189
-0.0841751 0.0968044 2.183
-0.0782272 0.0968506 2.184
-0.0722405 0.0968524 2.184
-0.0663141 0.0969427 2.186
-0.0604041 0.0970772 2.189
-0.0544525 0.0971672 2.191
-0.0484897 0.0972571 2.193
-0.0424576 0.0972138 2.192
-0.0364973 0.0973477 2.195
-0.0305204 0.0974816 2.198
-0.0244935 0.0974822 2.198
-0.0184329 0.0973053 2.194
-0.0124168 0.0973057 2.194
-0.00641524 0.0975276 2.199
-0.00038621 0.0977495 2.204
0.00566254 0.0978381 2.206
0.0117116 0.0978379 2.206
0.017817 0.098148 2.213
0.0239715 0.0985024 2.221
0.0301291 0.0987235 2.226
0.0363466 0.0990331 2.233
0.0425263 0.0991653 2.236
0.0489181 0.0996964 2.248
0.0553019 0.100094 2.257
0.0617621 0.100536 2.267
0.068097 0.100712 2.271
0.0744862 0.100932 2.276
0.0809025 0.101152 2.281
0.0875369 0.101594 2.291
0.0945125 0.102346 2.308
0.104727 0.10629 2.397
0.111718 0.100742 2.272
0.118099 0.100873 2.275
0.124278 0.100825 2.274
0.130278 0.100645 2.27
0.136497 0.100642 2.27
0.143029 0.100861 2.275
0.149063 0.100724 2.272
0.155012 0.100544 2.268
0.160512 0.100097 2.258
0.166473 0.0999601 2.255
0.172417 0.0998233 2.252
0.17882 0.0999523 2.255
0.185484 0.100214 2.261
0.191757 0.100254 2.262
0.198297 0.100427 2.266
0.20558 0.100955 2.278
-0.321217 0.10141 2.441
-0.311718 0.100502 2.419
-0.305365 0.100591 2.421
-0.298013 0.100348 2.415
-0.290693 0.100104 2.409
-0.283169 0.0997774 2.401
-0.277415 0.100074 2.408
-0.27196 0.100495 2.418
-0.26601 0.10075 2.424
-0.25917 0.100672 2.422
-0.252966 0.100844 2.426
-0.246637 0.100973 2.429
-0.239303 0.100687 2.422
-0.226818 0.0981562 2.361
-0.214947 0.0957494 2.303
-0.206653 0.0948391 2.281
-0.199445 0.0943859 2.27
-0.192552 0.0940574 2.262
-0.185373 0.0935623 2.25
-0.178418 0.0931503 2.24
-0.171517 0.0927381 2.23
-0.164299 0.0921179 2.215
-0.157734 0.0918301 2.208
-0.151619 0.0917918 2.207
-0.146168 0.0921693 2.216
-0.140035 0.0921308 2.215
-0.133726 0.0919673 2.211
-0.127265 0.0916789 2.204
-0.121117 0.0915984 2.202
-0.114822 0.0913929 2.197
-0.108505 0.0911457 2.191
-0.1025 0.091148 2.191
-0.096628 0.091275 2.194
-0.0906973 0.0913602 2.196
-0.0845626 0.0912373 2.193
-0.0784797 0.0911558 2.191
-0.0724406 0.0911159 2.19
-0.0663459 0.0909926 2.187
-0.0604054 0.0910772 2.189
-0.054404 0.0910784 2.189
-0.0484023 0.0910795 2.189
-0.0424004 0.0910805 2.189
-0.0364483 0.0912062 2.192
-0.030535 0.0914982 2.199
-0.0244941 0.0914572 2.198
-0.0184586 0.091416 2.197
-0.0124341 0.0914164 2.197
-0.00643581 0.0917911 2.206
-0.00038692 0.0918744 2.208
0.0056678 0.0918743 2.208
0.0117331 0.0919573 2.21
0.0178577 0.0922899 2.218
0.024026 0.0926223 2.226
0.0301975 0.0928298 2.231
0.0363963 0.0930371 2.236
0.0425843 0.093161 2.239
0.0489409 0.0935761 2.249
0.0552296 0.093783 2.254
0.061709 0.0942394 2.265
0.0680385 0.0944045 2.269
0.0745206 0.0947358 2.277
0.0808334 0.0948173 2.279
0.0873096 0.0950651 2.285
0.0945146 0.09602 2.308
0.103724 0.0987636 2.374
0.108187 0.0969309 2.33
0.112163 0.0948901 2.281
0.117998 0.0945548 2.273
0.124116 0.094469 2.271
0.130166 0.0943415 2.268
0.13656 0.0944634 2.271
0.142906 0.0945436 2.273
0.149132 0.0945405 2.273
0.155357 0.0945373 2.273
0.161368 0.0944091 2.27
0.167067 0.0941145 2.263
0.172804 0.0938614 2.257
0.17922 0.0939825 2.26
0.185652 0.0941034 2.263
0.191676 0.0940163 2.261
0.198039 0.0940954 2.263
0.205314 0.0945902 2.275
-0.32017 0.0944178 2.433
-0.311853 0.093919 2.42
-0.30474 0.0937695 2.416
-0.297402 0.0935422 2.41
-0.290458 0.0934312 2.407
-0.283174 0.0932036 2.401
-0.277306 0.0934418 2.407
-0.271515 0.0937187 2.414
-0.265905 0.0940732 2.423
-0.259817 0.0942724 2.428
-0.253388 0.0943549 2.43
-0.246642 0.0943209 2.429
-0.238023 0.0935489 2.409
-0.226246 0.0914563 2.355
-0.214858 0.0894023 2.302
-0.206838 0.0886684 2.283
-0.199889 0.0883617 2.275
-0.192897 0.0880159 2.266
-0.185542 0.0874758 2.252
-0.17866 0.0871298 2.243
-0.171828 0.0867836 2.234
-0.164599 0.0862042 2.219
-0.157737 0.0857801 2.208
-0.151484 0.0856666 2.205
-0.145907 0.0859415 2.212
-0.139912 0.0859832 2.213
-0.133729 0.0859082 2.211
-0.127267 0.0856389 2.204
-0.121064 0.0855248 2.201
-0.114877 0.0854106 2.198
-0.108606 0.0852185 2.193
-0.102643 0.0852595 2.194
-0.0967181 0.0853393 2.196
-0.0908645 0.0854966 2.2
-0.0847186 0.0853818 2.197
-0.0786247 0.0853057 2.195
-0.072376 0.0850352 2.188
-0.066317 0.0849589 2.186
-0.0603791 0.0850379 2.188
-0.0545294 0.0852723 2.194
-0.0484918 0.0852344 2.193
-0.0424788 0.0852354 2.193
-0.0364324 0.0851584 2.191
-0.0305218 0.0854312 2.198
-0.0244389 0.0852374 2.193
-0.0184253 0.0852379 2.193
-0.0124004 0.0851604 2.191
-0.00642427 0.0855882 2.202
-0.000386928 0.0858215 2.208
0.00567049 0.0858603 2.209
0.0117227 0.0858212 2.208
0.0178419 0.0861319 2.216
0.0239941 0.0864035 2.223
0.0301575 0.0865973 2.228
0.0363645 0.0868298 2.234
0.0425662 0.0869845 2.238
0.0488331 0.0872168 2.244
0.0550838 0.0873712 2.248
0.0615468 0.0877975 2.259
0.06804 0.0881848 2.269
0.0745876 0.088572 2.279
0.0808351 0.0885705 2.279
0.0873879 0.0888797 2.287
0.0945166 0.0896939 2.308
0.102852 0.0914796 2.354
0.113099 0.0893768 2.3
0.118571 0.0887527 2.284
0.124447 0.0884783 2.277
0.130399 0.0882814 2.272
0.136623 0.0882787 2.272
0.142469 0.0880428 2.266
0.148742 0.0880788 2.267
0.15495 0.0880758 2.267
0.161727 0.0883834 2.275
0.167588 0.0881859 2.27
0.17342 0.0879883 2.265
0.178907 0.0876352 2.256
0.18459 0.0873986 2.25
0.190833 0.0874338 2.251
0.197693 0.0877407 2.259
0.205498 0.0884359 2.277
-0.320965 0.0879744 2.439
-0.312631 0.0875109 2.426
-0.304872 0.0871915 2.417
-0.297531 0.0869802 2.411
-0.290583 0.0868771 2.408
-0.283651 0.0867739 2.405
-0.277541 0.0869231 2.409
-0.271408 0.0870722 2.413
-0.265801 0.0874017 2.422
-0.259715 0.0875868 2.427
-0.253184 0.0876274 2.428
-0.246342 0.0875597 2.426
-0.237533 0.08677 2.404
-0.225866 0.0848611 2.351
-0.215142 0.0832046 2.305
-0.207748 0.0827753 2.293
-0.200332 0.0823096 2.28
-0.193071 0.08188 2.268
-0.185463 0.0812697 2.251
-0.178505 0.080912 2.241
-0.171908 0.0806985 2.235
-0.165121 0.0803767 2.226
-0.158526 0.0801269 2.219
-0.152037 0.0799131 2.213
-0.145976 0.0799158 2.213
-0.139788 0.0798463 2.211
-0.13355 0.0797405 2.208
-0.127154 0.0795262 2.202
-0.121231 0.0796007 2.204
-0.115088 0.0795307 2.202
-0.108955 0.0794606 2.2
-0.102645 0.0792458 2.194
-0.096808 0.0793922 2.198
-0.0908662 0.0794662 2.2
-0.0847974 0.0794318 2.199
-0.078662 0.0793249 2.196
-0.0724105 0.0790735 2.189
-0.066379 0.0790387 2.188
-0.0604079 0.079076 2.189
-0.0545305 0.0792577 2.194
-0.0484485 0.0791503 2.191
-0.0423828 0.0790428 2.188
-0.0363999 0.0790797 2.189
-0.0304946 0.0793332 2.196
-0.0244728 0.0793337 2.196
-0.0184593 0.0793702 2.197
-0.0124459 0.0794428 2.199
-0.00643607 0.0796959 2.206
-0.000387111 0.0798043 2.209
0.0056706 0.0798043 2.209
0.0117283 0.0798041 2.209
0.0178342 0.0800206 2.215
0.0239622 0.0802008 2.22
0.0301175 0.0803809 2.225
0.0363489 0.0806693 2.233
0.042567 0.0808492 2.238
0.0488994 0.0811734 2.247
0.0550359 0.0811363 2.246
0.0614936 0.0815326 2.257
0.0679513 0.0818565 2.266
0.0746545 0.082397 2.281
0.0809785 0.0824678 2.283
0.0877717 0.0829719 2.297
0.094887 0.0836926 2.317
0.102461 0.0847021 2.345
0.112954 0.0829643 2.297
0.118626 0.0825288 2.285
0.124449 0.0822375 2.277
0.130171 0.0819101 2.268
0.136144 0.0817632 2.264
0.142346 0.0817606 2.264
0.148482 0.0817218 2.263
0.15468 0.081719 2.263
0.160948 0.0817522 2.264
0.167148 0.0817492 2.264
0.173117 0.0816377 2.261
0.178513 0.0812734 2.251
0.184019 0.0809813 2.243
0.190158 0.0809779 2.243
0.196821 0.081191 2.249
0.20478 0.0819093 2.269
-0.321497 0.0814312 2.443
-0.312894 0.0809362 2.428
-0.305129 0.0806411 2.419
-0.297783 0.0804458 2.413
-0.290709 0.0803172 2.409
-0.283892 0.0802551 2.407
-0.277546 0.0803264 2.409
-0.2713 0.0804308 2.412
-0.265476 0.0806686 2.419
-0.259291 0.0808063 2.423
-0.253188 0.0809773 2.428
-0.246143 0.080848 2.424
-0.236846 0.0799514 2.397
-0.224141 0.0778205 2.333
-0.214865 0.07679 2.302
-0.207752 0.0764934 2.293
-0.200423 0.0760964 2.281
-0.192989 0.0756327 2.267
-0.185466 0.0751021 2.251
-0.178348 0.0747048 2.239
-0.171834 0.0745409 2.234
-0.165198 0.0743102 2.227
-0.158743 0.0741461 2.222
-0.152108 0.0738818 2.214
-0.145583 0.0736507 2.207
-0.139285 0.0735197 2.203
-0.132947 0.0733552 2.198
-0.12681 0.0732907 2.196
-0.121069 0.0734597 2.201
-0.11509 0.0734951 2.202
-0.109056 0.073497 2.202
-0.102647 0.0732319 2.194
-0.0967217 0.0733003 2.196
-0.0907027 0.073302 2.196
-0.0846832 0.0733035 2.196
-0.0786993 0.0733383 2.197
-0.0723787 0.0730392 2.188
-0.0664712 0.0731406 2.191
-0.0604366 0.0731083 2.19
-0.0546558 0.0734097 2.199
-0.0486484 0.073444 2.2
-0.0425385 0.0733113 2.196
-0.0364171 0.0731117 2.19
-0.0304535 0.0732124 2.193
-0.0245178 0.0734466 2.2
-0.0185269 0.0736139 2.205
-0.0124801 0.0736142 2.205
-0.00643035 0.073581 2.204
-0.000386067 0.0735476 2.203
0.00566814 0.0737145 2.208
0.0117391 0.0738145 2.211
0.0178426 0.0739812 2.216
0.0239734 0.0741477 2.221
0.0301722 0.0744143 2.229
0.0363822 0.0746141 2.235
0.0426439 0.0748471 2.242
0.048922 0.0750466 2.248
0.0550859 0.0750456 2.248
0.0614402 0.0752783 2.255
0.0678926 0.0755776 2.264
0.0745904 0.0760771 2.279
0.08098 0.0762093 2.283
0.0879644 0.076842 2.302
0.0950935 0.077508 2.322
0.102332 0.0781739 2.342
0.118939 0.0764659 2.291
0.124834 0.0762301 2.284
0.130461 0.0758608 2.273
0.136087 0.0755248 2.263
0.142286 0.0755224 2.263
0.148288 0.0754198 2.26
0.154273 0.0753171 2.257
0.16024 0.0752143 2.254
0.166339 0.0751781 2.253
0.172431 0.0751419 2.252
0.177962 0.074872 2.244
0.18394 0.0748022 2.242
0.189992 0.0747657 2.241
0.196212 0.0747958 2.242
0.203249 0.075126 2.252
-0.320317 0.074468 2.434
-0.313672 0.0744726 2.434
-0.305891 0.0742018 2.425
-0.298898 0.0741144 2.422
-0.291558 0.0739351 2.416
-0.284722 0.0738782 2.414
-0.278357 0.0739436 2.416
-0.272204 0.0740701 2.42
-0.266029 0.0741965 2.424
-0.259616 0.0742617 2.426
-0.252879 0.074235 2.425
-0.245537 0.0740244 2.418
-0.235664 0.0730178 2.385
-0.224337 0.0714905 2.335
-0.214962 0.0705141 2.303
-0.208027 0.070303 2.296
-0.200426 0.0698468 2.281
-0.192992 0.0694212 2.267
-0.185222 0.0688423 2.248
-0.17859 0.0686613 2.242
-0.172145 0.0685416 2.238
-0.165572 0.0683604 2.232
-0.159246 0.0682711 2.229
-0.152592 0.0680285 2.221
-0.145981 0.0677858 2.213
-0.13954 0.0676043 2.207
-0.133131 0.0674226 2.201
-0.127043 0.067394 2.2
-0.121236 0.0675186 2.204
-0.115196 0.0675204 2.204
-0.109057 0.0674609 2.202
-0.102555 0.0671563 2.192
-0.0965912 0.0671885 2.193
-0.0908281 0.0673738 2.199
-0.0848775 0.0674365 2.201
-0.0788081 0.0674072 2.2
-0.0725122 0.0671633 2.192
-0.0665027 0.0671644 2.192
-0.0603824 0.0670429 2.188
-0.054433 0.0671051 2.19
-0.0485165 0.0672285 2.194
-0.0425199 0.0672598 2.195
-0.0365342 0.0673218 2.197
-0.0304818 0.067261 2.195
-0.0245517 0.0675066 2.203
-0.0185608 0.0676908 2.209
-0.0125143 0.0677523 2.211
-0.00644213 0.0676606 2.208
-0.000386599 0.0675993 2.206
0.00568107 0.0678138 2.213
0.0117659 0.0679056 2.216
0.0178751 0.0680279 2.22
0.0239846 0.0680889 2.222
0.0301863 0.0683336 2.23
0.0364642 0.0686395 2.24
0.0426636 0.0687307 2.243
0.0489664 0.0689445 2.25
0.0550868 0.0688824 2.248
0.0614412 0.0690959 2.255
0.0678038 0.0692787 2.261
0.0743626 0.0696146 2.272
0.080804 0.0697972 2.278
0.0876219 0.0702555 2.293
0.0948084 0.0709281 2.315
0.102115 0.0716005 2.337
0.114433 0.0712907 2.327
0.118578 0.0699715 2.284
0.124344 0.0696939 2.275
0.130119 0.0694468 2.267
0.136029 0.0692915 2.262
0.142351 0.0693506 2.264
0.148159 0.0691645 2.258
0.154275 0.0691315 2.257
0.159959 0.0689146 2.25
0.166046 0.0688814 2.249
0.171744 0.068695 2.243
0.177806 0.0686617 2.242
0.183943 0.0686589 2.242
0.18991 0.0685947 2.24
0.195778 0.0684999 2.237
0.202711 0.0687724 2.246
0.210623 0.069351 2.265
-0.320848 0.067916 2.438
-0.312517 0.067558 2.425
-0.304886 0.0673392 2.417
-0.298285 0.0673433 2.417
-0.29108 0.0672079 2.412
-0.2839 0.0670724 2.407
-0.277554 0.067132 2.409
-0.271983 0.0673865 2.418
-0.266252 0.0676131 2.426
-0.260048 0.0677282 2.43
-0.253404 0.0677318 2.43
-0.245643 0.0674286 2.419
-0.234877 0.0662611 2.377
-0.224052 0.0650099 2.332
-0.215245 0.0642881 2.306
-0.207939 0.0639844 2.295
-0.200693 0.0636806 2.284
-0.193165 0.0632651 2.269
-0.185801 0.0628774 2.255
-0.179071 0.0626848 2.248
-0.172763 0.0626315 2.246
-0.165871 0.0623551 2.236
-0.15932 0.0621901 2.23
-0.152869 0.0620529 2.225
-0.146313 0.0618598 2.218
-0.139858 0.0616945 2.212
-0.133557 0.0615849 2.208
-0.127392 0.061531 2.206
-0.121457 0.0615886 2.208
-0.11525 0.0615066 2.205
-0.10901 0.0613967 2.201
-0.102697 0.0612308 2.195
-0.0967688 0.0612881 2.197
-0.0909947 0.0614568 2.203
-0.0849559 0.0614581 2.203
-0.0789526 0.0614872 2.204
-0.0727118 0.0613209 2.198
-0.066625 0.0612662 2.196
-0.0604109 0.0610718 2.189
-0.0544587 0.0611284 2.191
-0.0486058 0.0613245 2.198
-0.0426949 0.0614926 2.204
-0.0366678 0.061521 2.205
-0.0305933 0.0614657 2.203
-0.0245743 0.061522 2.205
-0.0185611 0.0616339 2.209
-0.0125145 0.0616899 2.211
-0.00645682 0.0617458 2.213
-0.000387481 0.0616901 2.211
0.00569656 0.0619133 2.219
0.0117926 0.0619689 2.221
0.0178996 0.0620245 2.223
0.0240174 0.06208 2.225
0.0302003 0.062247 2.231
0.0364647 0.0624976 2.24
0.0427404 0.0626924 2.247
0.0490107 0.0628312 2.252
0.0552592 0.0629141 2.255
0.0614967 0.0629691 2.257
0.0678648 0.0631355 2.263
0.0742655 0.0633019 2.269
0.0806988 0.0634681 2.275
0.0873176 0.0637459 2.285
0.0944822 0.0643583 2.307
0.101854 0.0650264 2.331
0.11024 0.0662244 2.374
0.116353 0.0659996 2.366
0.118787 0.0638221 2.288
0.124565 0.0635693 2.279
0.130293 0.0633164 2.27
0.136031 0.0630913 2.262
0.141976 0.0629778 2.258
0.148096 0.0629478 2.257
0.154346 0.0629735 2.258
0.160459 0.0629434 2.257
0.165975 0.06269 2.248
0.171594 0.0624924 2.241
0.177253 0.0623227 2.235
0.183536 0.0623759 2.237
0.190082 0.0625126 2.242
0.196043 0.0624541 2.24
0.202895 0.0626744 2.248
0.209882 0.0629224 2.257
-0.320062 0.0610906 2.432
-0.31149 0.0607175 2.417
-0.304007 0.0605454 2.41
-0.297548 0.0605741 2.411
-0.291204 0.0606279 2.413
-0.284376 0.0605812 2.411
-0.278249 0.0606851 2.415
-0.272436 0.0608644 2.422
-0.266804 0.0610939 2.431
-0.260694 0.0612228 2.436
-0.254346 0.0613014 2.439
-0.246255 0.0609526 2.425
-0.234089 0.0595481 2.369
-0.223286 0.0584197 2.324
-0.214781 0.0578443 2.301
-0.20767 0.0576207 2.292
-0.200256 0.0572965 2.279
-0.193083 0.0570224 2.268
-0.186051 0.0567734 2.258
-0.180109 0.0568512 2.261
-0.173457 0.0567026 2.255
-0.166541 0.0564533 2.245
-0.159822 0.0562542 2.237
-0.153146 0.0560551 2.229
-0.146777 0.0559564 2.225
-0.140113 0.0557319 2.216
-0.133861 0.0556583 2.213
-0.127682 0.0556097 2.211
-0.121679 0.0556364 2.212
-0.115513 0.0555877 2.21
-0.10911 0.0554131 2.203
-0.102792 0.0552635 2.197
-0.0968583 0.0553152 2.199
-0.0910786 0.0554673 2.205
-0.0850342 0.0554685 2.205
-0.0789895 0.0554696 2.205
-0.0728452 0.0553951 2.202
-0.0667473 0.0553457 2.2
-0.0605774 0.0552208 2.195
-0.0545091 0.0551712 2.193
-0.0485401 0.0552222 2.195
-0.042618 0.0553486 2.2
-0.0366849 0.0555001 2.206
-0.0306632 0.0555509 2.208
-0.024597 0.0555261 2.207
-0.0185445 0.0555263 2.207
-0.0124807 0.0554762 2.205
-0.00644524 0.055577 2.209
-0.000387662 0.0556525 2.212
0.00570691 0.0559292 2.223
0.0118299 0.0560549 2.228
0.0179642 0.0561302 2.231
0.0240285 0.0560041 2.226
0.0301871 0.0561044 2.23
0.0364327 0.0563052 2.238
0.0426839 0.0564557 2.244
0.0489896 0.0566312 2.251
0.055358 0.0568317 2.259
0.0616882 0.0569567 2.264
0.0680757 0.0571068 2.27
0.074332 0.057131 2.271
0.0808064 0.0573061 2.278
0.0874334 0.0575566 2.288
0.0945245 0.0580585 2.308
0.101943 0.0586861 2.333
0.109127 0.0591123 2.35
0.124785 0.0574224 2.283
0.130065 0.0569932 2.266
0.135792 0.0567903 2.258
0.141664 0.0566627 2.253
0.14836 0.056862 2.261
0.154553 0.0568601 2.261
0.160461 0.0567574 2.257
0.165755 0.0564536 2.245
0.171137 0.0562 2.235
0.177176 0.0561726 2.234
0.183374 0.0561954 2.235
0.190254 0.0564193 2.244
0.196308 0.0563917 2.243
0.202717 0.0564646 2.246
0.20942 0.0566129 2.252
-0.320329 0.0544769 2.434
-0.311622 0.0541221 2.418
-0.304263 0.0539911 2.412
-0.298169 0.0540839 2.416
-0.291931 0.0541542 2.419
-0.284615 0.054023 2.413
-0.278137 0.0540485 2.414
-0.272102 0.0541634 2.419
-0.266478 0.0543679 2.428
-0.260911 0.0545947 2.438
-0.255079 0.0547767 2.446
-0.247375 0.0545556 2.436
-0.233598 0.0529457 2.364
-0.222616 0.0518956 2.317
-0.214224 0.0514053 2.295
-0.20731 0.0512509 2.288
-0.200171 0.0510292 2.278
-0.19334 0.0508746 2.271
-0.18696 0.0508319 2.269
-0.180748 0.050834 2.269
-0.17369 0.0505896 2.258
-0.16684 0.0503899 2.249
-0.160038 0.0501901 2.24
-0.153354 0.0500127 2.232
-0.146779 0.0498576 2.225
-0.140178 0.0496799 2.217
-0.134165 0.049704 2.218
-0.127742 0.049571 2.212
-0.121901 0.0496621 2.216
-0.115515 0.049529 2.21
-0.109211 0.0494183 2.205
-0.102793 0.0492402 2.197
-0.0969476 0.049331 2.201
-0.0909971 0.049377 2.203
-0.0849967 0.0494004 2.204
-0.0789905 0.0494238 2.205
-0.072813 0.049335 2.201
-0.0667785 0.0493359 2.201
-0.0606333 0.0492469 2.197
-0.0547832 0.0494045 2.204
-0.0486734 0.0493379 2.201
-0.0426573 0.0493609 2.202
-0.0366355 0.0493837 2.203
-0.0306636 0.0494962 2.208
-0.0246419 0.0495638 2.211
-0.0185616 0.0495192 2.209
-0.0124921 0.0494746 2.207
-0.00644532 0.0495195 2.209
-0.000388543 0.0496989 2.217
0.00571725 0.049923 2.227
0.0118566 0.0500574 2.233
0.0179967 0.0501021 2.235
0.0241476 0.0501467 2.237
0.0303094 0.0501912 2.239
0.0364983 0.050258 2.242
0.0427035 0.0503248 2.245
0.0489467 0.050414 2.249
0.0553832 0.0506599 2.26
0.0616618 0.0507265 2.263
0.0680165 0.0508378 2.268
0.0743657 0.0509266 2.272
0.0809848 0.0511722 2.283
0.087702 0.0514402 2.295
0.0944437 0.0516857 2.306
0.101551 0.052088 2.324
0.109082 0.0526471 2.349
0.125443 0.0514327 2.295
0.129952 0.0507365 2.264
0.135734 0.0505781 2.257
0.141665 0.0504869 2.253
0.148428 0.0506869 2.262
0.154623 0.0506851 2.262
0.160534 0.0505937 2.258
0.165684 0.0502781 2.244
0.171215 0.050097 2.236
0.176782 0.0499381 2.229
0.183048 0.0499809 2.231
0.189578 0.0500908 2.236
0.195961 0.0501558 2.239
0.202358 0.0502208 2.242
0.208865 0.0503081 2.246
0.220083 0.0514928 2.299
-0.323359 0.0482645 2.457
-0.313558 0.047796 2.433
-0.305779 0.0476221 2.424
-0.299036 0.0476053 2.423
-0.292779 0.0476671 2.426
-0.285679 0.0475912 2.422
-0.278831 0.0475546 2.42
-0.272442 0.0475966 2.422
-0.2667 0.0477564 2.43
-0.261235 0.0479751 2.441
-0.25602 0.0482528 2.455
-0.248292 0.0480587 2.445
-0.235083 0.0467637 2.379
-0.222907 0.0456062 2.32
-0.214319 0.0451365 2.296
-0.207313 0.0449814 2.288
-0.199997 0.0447475 2.276
-0.193087 0.0445921 2.268
-0.186138 0.0444171 2.259
-0.180113 0.0444582 2.261
-0.17323 0.044283 2.252
-0.166842 0.0442257 2.249
-0.160183 0.0440897 2.242
-0.153836 0.0440323 2.239
-0.14711 0.0438568 2.23
-0.140243 0.0436223 2.218
-0.134166 0.0436237 2.218
-0.127801 0.0435267 2.213
-0.121957 0.0436066 2.217
-0.115725 0.0435488 2.214
-0.109459 0.0434713 2.21
-0.103075 0.0433347 2.203
-0.0969486 0.0432964 2.201
-0.0909981 0.0433367 2.203
-0.084882 0.0432983 2.201
-0.078848 0.0432991 2.201
-0.0726484 0.0432015 2.196
-0.0668399 0.04334 2.203
-0.0608548 0.04338 2.205
-0.0549827 0.0435183 2.212
-0.0487403 0.0433614 2.204
-0.042619 0.0432832 2.2
-0.0366026 0.0433033 2.201
-0.0306778 0.0434611 2.209
-0.0246756 0.0435597 2.214
-0.018587 0.0435206 2.212
-0.0124923 0.0434224 2.207
-0.00644831 0.0434815 2.21
-0.000389248 0.043698 2.221
0.00571988 0.0438357 2.228
0.0118568 0.0439339 2.233
0.0179808 0.0439338 2.233
0.0241694 0.0440516 2.239
0.030418 0.0442087 2.247
0.0365963 0.0442281 2.248
0.042742 0.044208 2.247
0.0488819 0.0441878 2.246
0.0553348 0.0444234 2.258
0.0616897 0.0445408 2.264
0.0681372 0.0446975 2.272
0.0744974 0.0447755 2.276
0.0809502 0.0448927 2.282
0.0875501 0.0450689 2.291
0.094199 0.045245 2.3
0.10129 0.0455981 2.318
0.10899 0.0461674 2.347
0.13024 0.0446283 2.269
0.136036 0.0444893 2.262
0.141918 0.0443895 2.257
0.148232 0.0444274 2.259
0.15401 0.0443078 2.253
0.159896 0.0442276 2.249
0.165316 0.0440293 2.239
0.170911 0.04389 2.232
0.177339 0.0439669 2.236
0.18305 0.0438667 2.231
0.189157 0.0438649 2.231
0.195438 0.0439023 2.233
0.201729 0.0439397 2.235
0.208588 0.0440949 2.243
0.215586 0.0442697 2.252
-0.323494 0.0415541 2.458
-0.314205 0.0412185 2.438
-0.306539 0.0410857 2.43
-0.300026 0.0411051 2.431
-0.293023 0.0410568 2.428
-0.2858 0.0409746 2.423
-0.278488 0.0408755 2.417
-0.27222 0.0409285 2.42
-0.266373 0.0410491 2.427
-0.260702 0.0412036 2.436
-0.255293 0.0414087 2.448
-0.249919 0.0416307 2.461
-0.235974 0.0403978 2.388
-0.223293 0.0393171 2.324
-0.214601 0.038896 2.299
-0.207405 0.0387286 2.289
-0.20035 0.038578 2.28
-0.193089 0.0383767 2.268
-0.185892 0.0381752 2.256
-0.179477 0.0381261 2.253
-0.173001 0.0380599 2.249
-0.166769 0.0380444 2.248
-0.160113 0.0379274 2.241
-0.153769 0.037878 2.238
-0.147309 0.0377947 2.233
-0.140687 0.0376605 2.225
-0.134531 0.0376448 2.224
-0.127975 0.0375105 2.216
-0.121958 0.0375286 2.217
-0.115569 0.037428 2.211
-0.109361 0.0373782 2.208
-0.103029 0.0372776 2.202
-0.0969496 0.0372616 2.201
-0.0910403 0.0373132 2.204
-0.0847671 0.0372124 2.198
-0.0787771 0.0372301 2.199
-0.0726491 0.0371799 2.196
-0.0670226 0.0374007 2.209
-0.0609658 0.0374012 2.209
-0.0549832 0.0374525 2.212
-0.0486744 0.0372668 2.201
-0.0426 0.0372333 2.199
-0.036603 0.0372675 2.201
-0.0306781 0.0374033 2.209
-0.024687 0.0375051 2.215
-0.0186292 0.0375392 2.217
-0.0125377 0.0375055 2.215
-0.0064688 0.0375394 2.217
-0.000389252 0.0376072 2.221
0.00571223 0.0376749 2.225
0.0118197 0.0376917 2.226
0.0179407 0.0377255 2.228
0.0241265 0.0378438 2.235
0.0303777 0.0379959 2.244
0.036613 0.0380803 2.249
0.0427804 0.0380799 2.249
0.0489695 0.0380965 2.25
0.0553353 0.0382315 2.258
0.0616903 0.0383325 2.264
0.0680179 0.0383997 2.268
0.0743999 0.0384837 2.273
0.0807381 0.0385338 2.276
0.0873981 0.0387193 2.287
0.0940361 0.0388708 2.296
0.101247 0.0392255 2.317
0.130701 0.0385432 2.277
0.136398 0.0383897 2.268
0.142108 0.0382531 2.26
0.147971 0.0381672 2.255
0.153669 0.0380474 2.248
0.159471 0.0379614 2.243
0.165096 0.0378415 2.236
0.170989 0.0377893 2.233
0.177103 0.0377878 2.233
0.183052 0.0377524 2.231
0.188819 0.0376831 2.227
0.195002 0.0376984 2.228
0.201369 0.0377475 2.231
0.207939 0.0378303 2.236
0.214726 0.037947 2.243
-0.322312 0.0346963 2.449
-0.313435 0.0344576 2.432
-0.306163 0.0343889 2.427
-0.299658 0.0344051 2.428
-0.292663 0.0343646 2.425
-0.28592 0.0343524 2.424
-0.27849 0.0342552 2.417
-0.272559 0.0343421 2.423
-0.266595 0.034429 2.429
-0.260597 0.0345159 2.435
-0.255399 0.0347162 2.449
-0.249311 0.034803 2.455
-0.223103 0.0329208 2.322
-0.214603 0.0325963 2.299
-0.20786 0.0325269 2.294
-0.200791 0.0324007 2.285
-0.19292 0.0321327 2.266
-0.185646 0.0319497 2.253
-0.17924 0.0319085 2.25
-0.173387 0.0319665 2.254
-0.166993 0.0319252 2.251
-0.1604 0.0318413 2.245
-0.153702 0.031729 2.237
-0.14731 0.0316733 2.233
-0.140688 0.0315609 2.225
-0.13435 0.0315052 2.221
-0.127976 0.0314352 2.216
-0.121849 0.031422 2.215
-0.115623 0.0313803 2.212
-0.109313 0.0313102 2.207
-0.10317 0.0312826 2.205
-0.0968623 0.0311982 2.199
-0.0907932 0.0311847 2.198
-0.0846906 0.031157 2.196
-0.0787778 0.0312002 2.199
-0.0727489 0.0312007 2.199
-0.0669625 0.0313148 2.207
-0.0610215 0.031372 2.211
-0.0550085 0.0314008 2.213
-0.0487411 0.0312735 2.204
-0.0426391 0.0312313 2.201
-0.0365534 0.031189 2.198
-0.0306784 0.0313453 2.209
-0.024676 0.0314165 2.214
-0.0186881 0.0315586 2.224
-0.0125548 0.0314735 2.218
-0.00647468 0.0314878 2.219
-0.000388554 0.0314594 2.217
0.00570971 0.0315588 2.224
0.0118198 0.0315871 2.226
0.0179167 0.0315728 2.225
0.0240295 0.0315868 2.226
0.0302561 0.0317143 2.235
0.0365482 0.031856 2.245
0.0428188 0.0319408 2.251
0.0489916 0.0319404 2.251
0.0553113 0.0320252 2.257
0.0616908 0.0321241 2.264
0.0681085 0.0322229 2.271
0.0745315 0.0323075 2.277
0.0809516 0.0323779 2.282
0.087437 0.0324624 2.288
0.0940778 0.0325894 2.297
0.101554 0.0329717 2.324
0.136399 0.032172 2.268
0.141795 0.0319866 2.255
0.147382 0.0318579 2.246
0.15285 0.0317149 2.236
0.158974 0.0317138 2.236
0.164728 0.0316417 2.231
0.17099 0.0316688 2.233
0.177421 0.0317243 2.237
0.183135 0.0316521 2.232
0.18899 0.0316082 2.229
0.194566 0.0315218 2.223
0.20092 0.0315629 2.226
0.207289 0.031604 2.229
0.214058 0.0317017 2.236
-0.322577 0.0280134 2.451
-0.31421 0.0278666 2.438
-0.306417 0.0277654 2.429
-0.300153 0.0278014 2.432
-0.292665 0.027723 2.425
-0.286158 0.027736 2.426
-0.278953 0.0276804 2.421
-0.273011 0.0277506 2.427
-0.266377 0.0277521 2.427
-0.260277 0.0278107 2.432
-0.254775 0.027938 2.443
-0.249414 0.0280881 2.456
-0.234693 0.0271631 2.375
-0.222624 0.026501 2.317
-0.215165 0.026365 2.305
-0.208586 0.0263319 2.302
-0.201671 0.0262531 2.295
-0.193943 0.0260597 2.278
-0.186472 0.0258892 2.263
-0.179958 0.0258445 2.259
-0.173773 0.0258456 2.259
-0.167217 0.0257894 2.254
-0.160687 0.0257331 2.249
-0.153771 0.0256082 2.238
-0.14718 0.025529 2.231
-0.140752 0.0254726 2.226
-0.134472 0.0254391 2.223
-0.127977 0.0253598 2.216
-0.121685 0.0253147 2.212
-0.115362 0.0252582 2.207
-0.109264 0.0252474 2.206
-0.103265 0.0252595 2.207
-0.0969951 0.0252029 2.202
-0.0907938 0.0251577 2.198
-0.0848069 0.0251697 2.199
-0.0789574 0.0252274 2.204
-0.072981 0.0252507 2.206
-0.0668719 0.0252283 2.204
-0.0609391 0.0252744 2.208
-0.0548598 0.0252633 2.207
-0.0487194 0.0252179 2.203
-0.0425619 0.0251495 2.197
-0.0364871 0.0251154 2.194
-0.0305536 0.0251842 2.2
-0.0246093 0.025276 2.208
-0.0186295 0.0253791 2.217
-0.0125266 0.0253335 2.213
-0.00646889 0.0253793 2.217
-0.000388206 0.0253564 2.215
0.00570718 0.025448 2.223
0.0117986 0.0254365 2.222
0.0178926 0.0254364 2.222
0.0240297 0.0254821 2.226
0.0302563 0.0255849 2.235
0.036581 0.0257221 2.247
0.0428001 0.0257562 2.25
0.0490573 0.0258017 2.254
0.0553361 0.0258472 2.258
0.0616912 0.0259155 2.264
0.0681089 0.0259952 2.271
0.0746957 0.0261207 2.282
0.0810586 0.0261546 2.285
0.0874758 0.0261999 2.289
0.0940785 0.0262909 2.297
0.101599 0.0266108 2.325
0.132712 0.0264585 2.312
0.136099 0.0258969 2.263
0.141356 0.0257245 2.248
0.147055 0.0256435 2.241
0.152783 0.025574 2.235
0.159189 0.0256188 2.239
0.165099 0.0255835 2.236
0.171298 0.025594 2.237
0.177264 0.0255701 2.235
0.182808 0.025489 2.228
0.188483 0.0254307 2.223
0.193954 0.0253495 2.216
0.20047 0.0254056 2.221
0.207105 0.025473 2.227
0.214251 0.0255976 2.238
-0.323105 0.0213369 2.455
-0.314727 0.0212252 2.442
-0.307175 0.0211657 2.435
-0.300648 0.0211756 2.436
-0.293511 0.0211421 2.432
-0.286867 0.0211433 2.432
-0.27953 0.0210924 2.426
-0.273575 0.0211457 2.432
-0.266818 0.0211382 2.431
-0.261135 0.0212176 2.44
-0.255715 0.021323 2.452
-0.22445 0.0203173 2.336
-0.216286 0.020153 2.317
-0.209765 0.0201366 2.315
-0.202288 0.0200244 2.302
-0.19471 0.0198948 2.287
-0.187297 0.0197738 2.273
-0.180437 0.019705 2.265
-0.174312 0.0197145 2.266
-0.16744 0.019637 2.257
-0.16083 0.0195855 2.251
-0.153703 0.0194644 2.237
-0.147312 0.0194303 2.233
-0.140753 0.01937 2.226
-0.134473 0.0193445 2.223
-0.128093 0.0193016 2.218
-0.121576 0.0192326 2.21
-0.115467 0.0192244 2.209
-0.109364 0.0192162 2.208
-0.103359 0.0192254 2.209
-0.0970837 0.0191823 2.204
-0.0907117 0.0191131 2.196
-0.0848073 0.0191396 2.199
-0.078922 0.0191748 2.203
-0.0730475 0.0192187 2.208
-0.0668723 0.0191842 2.204
-0.0608842 0.0192019 2.206
-0.0548103 0.0191935 2.205
-0.0487417 0.019185 2.204
-0.0425815 0.019133 2.198
-0.0365039 0.0191071 2.195
-0.0305538 0.0191507 2.2
-0.0245649 0.0191857 2.204
-0.0185875 0.0192554 2.212
-0.0125153 0.0192468 2.211
-0.00646893 0.0192991 2.217
-0.000388384 0.0192904 2.216
0.00570978 0.01936 2.224
0.011804 0.0193513 2.223
0.0179249 0.0193773 2.226
0.0240622 0.0194033 2.229
0.0302971 0.0194815 2.238
0.0365649 0.019551 2.246
0.0428384 0.0196031 2.252
0.0491446 0.0196551 2.258
0.05541 0.019681 2.261
0.061637 0.0196894 2.262
0.0681993 0.0197936 2.274
0.074827 0.0198977 2.286
0.0812009 0.0199234 2.289
0.0874763 0.019923 2.289
0.094038 0.0199836 2.296
0.101555 0.0202268 2.324
0.13616 0.0197014 2.264
0.141419 0.0195702 2.249
0.147121 0.0195087 2.242
0.153057 0.0194819 2.239
0.159118 0.0194725 2.238
0.165173 0.0194631 2.237
0.171222 0.0194536 2.236
0.176789 0.019392 2.229
0.182235 0.0193216 2.221
0.187805 0.0192685 2.215
0.193605 0.0192416 2.212
0.20029 0.0193016 2.219
0.206641 0.0193268 2.222
0.213773 0.0194216 2.233
0.222245 0.0196294 2.257
-0.323896 0.0146502 2.461
-0.315114 0.0145559 2.445
-0.307555 0.0145151 2.438
-0.300402 0.0144922 2.434
-0.293512 0.0144811 2.432
-0.286986 0.0144879 2.433
-0.280338 0.0144887 2.433
-0.273688 0.0144895 2.433
-0.267038 0.0144903 2.433
-0.261243 0.0145388 2.441
-0.25582 0.014611 2.453
-0.225508 0.0139817 2.347
-0.216567 0.0138215 2.32
-0.209313 0.0137626 2.31
-0.202113 0.0137036 2.3
-0.195562 0.0136864 2.297
-0.188204 0.0136095 2.284
-0.181154 0.0135504 2.274
-0.174313 0.0135033 2.266
-0.167663 0.0134681 2.26
-0.160903 0.0134209 2.252
-0.154048 0.0133618 2.242
-0.147511 0.0133265 2.236
-0.141133 0.0133031 2.232
-0.134957 0.0132976 2.231
-0.12844 0.0132563 2.224
-0.121796 0.013197 2.214
-0.115415 0.0131616 2.208
-0.109265 0.0131501 2.206
-0.103453 0.0131802 2.211
-0.0973043 0.0131686 2.209
-0.0911664 0.013157 2.207
-0.0850005 0.0131394 2.204
-0.0789582 0.0131396 2.204
-0.0730809 0.0131697 2.209
-0.0669332 0.013152 2.206
-0.0609396 0.0131641 2.208
-0.0548106 0.0131464 2.205
-0.0488083 0.0131585 2.207
-0.0426979 0.0131408 2.204
-0.0366371 0.0131349 2.203
-0.03054 0.0131112 2.199
-0.0245092 0.0131113 2.199
-0.018512 0.0131352 2.203
-0.0124927 0.0131591 2.207
-0.00645728 0.0131949 2.213
-0.00038821 0.0132068 2.215
0.00569953 0.0132366 2.22
0.0117934 0.0132426 2.221
0.0179411 0.0132843 2.228
0.0241487 0.0133379 2.237
0.0303243 0.0133557 2.24
0.036565 0.0133913 2.246
0.0428385 0.013427 2.252
0.0491665 0.0134686 2.259
0.0555082 0.0135042 2.265
0.0616645 0.0134921 2.263
0.0681096 0.0135396 2.271
0.0744999 0.0135691 2.276
0.0809174 0.0135987 2.281
0.087362 0.0136283 2.286
0.0941612 0.0137055 2.299
0.101468 0.0138423 2.322
0.137664 0.0136433 2.289
0.141231 0.0133866 2.246
0.147187 0.0133683 2.243
0.153331 0.0133678 2.243
0.159261 0.0133495 2.24
0.165174 0.0133311 2.237
0.170916 0.0133008 2.232
0.17671 0.0132764 2.228
0.182071 0.0132222 2.219
0.187976 0.0132098 2.217
0.193518 0.0131734 2.211
0.19993 0.0131967 2.215
0.206084 0.013202 2.216
0.213199 0.0132669 2.227
-0.322054 0.0078664 2.447
-0.314471 0.00784439 2.44
-0.307555 0.00783844 2.438
-0.300527 0.00782926 2.435
-0.293272 0.00781364 2.43
-0.286633 0.0078141 2.43
-0.279762 0.00780811 2.428
-0.273351 0.00781498 2.43
-0.266819 0.00781862 2.431
-0.261564 0.00786085 2.444
-0.255612 0.00788378 2.451
-0.22522 0.00754074 2.344
-0.216661 0.0074671 2.321
-0.208588 0.00740632 2.302
-0.201937 0.00739378 2.298
-0.195733 0.00739732 2.299
-0.188946 0.00737833 2.293
-0.181712 0.00734002 2.281
-0.174544 0.0073017 2.269
-0.167738 0.00727624 2.261
-0.161046 0.00725398 2.254
-0.154117 0.00721884 2.243
-0.147577 0.00719978 2.237
-0.141133 0.00718393 2.232
-0.135018 0.00718416 2.232
-0.128672 0.00717151 2.228
-0.121961 0.00713631 2.217
-0.11552 0.00711397 2.21
-0.109265 0.00710129 2.206
-0.103313 0.0071079 2.208
-0.0973045 0.00711129 2.209
-0.0912492 0.00711145 2.209
-0.085155 0.00710838 2.208
-0.0790658 0.0071053 2.207
-0.0729818 0.00710221 2.206
-0.0670244 0.00711199 2.209
-0.0609674 0.0071121 2.209
-0.0548107 0.00709932 2.205
-0.048742 0.00709619 2.204
-0.042698 0.00709626 2.204
-0.0366539 0.00709633 2.204
-0.0306095 0.00709639 2.204
-0.024565 0.00709644 2.204
-0.018554 0.00710935 2.208
-0.0125041 0.0071126 2.209
-0.0064573 0.00712549 2.213
-0.000388386 0.00713516 2.216
0.00569955 0.00714803 2.22
0.0118147 0.00716412 2.225
0.0179814 0.00718985 2.233
0.0241487 0.00720269 2.237
0.0303243 0.00721231 2.24
0.0365326 0.00722513 2.244
0.0428957 0.00726048 2.255
0.0492537 0.00728616 2.263
0.0555574 0.00729895 2.267
0.0617737 0.00729885 2.267
0.0679898 0.00729874 2.267
0.0744019 0.00731793 2.273
0.0809176 0.00734356 2.281
0.0876297 0.00738205 2.293
0.0944891 0.00742696 2.307
0.101643 0.00748797 2.326
0.136762 0.00731937 2.274
0.141295 0.00723224 2.247
0.147319 0.00722556 2.245
0.153537 0.00722853 2.246
0.159333 0.00721218 2.241
0.164953 0.00718938 2.234
0.170457 0.00716336 2.226
0.176314 0.00715342 2.223
0.182482 0.00715635 2.224
0.188315 0.00714639 2.221
0.194131 0.00713642 2.218
0.19975 0.00712002 2.213
0.205619 0.00711325 2.211
0.212721 0.0071483 2.222
0.221163 0.00722516 2.246
-0.322054 0.00116587 2.447
-0.314858 0.00116403 2.443
-0.307682 0.0011622 2.439
-0.300527 0.00116036 2.435
-0.293151 0.00115757 2.429
-0.286987 0.00115955 2.433
-0.280454 0.00116009 2.434
-0.274027 0.00116111 2.436
-0.267478 0.00116165 2.437
-0.261565 0.00116504 2.444
-0.256238 0.0011713 2.457
-0.25023 0.0011747 2.464
-0.225028 0.00111665 2.342
-0.216194 0.0011043 2.316
-0.207954 0.00109434 2.295
-0.201674 0.00109439 2.295
-0.195563 0.00109539 2.297
-0.188863 0.00109305 2.292
-0.181633 0.00108738 2.28
-0.174237 0.00108027 2.265
-0.167515 0.00107697 2.258
-0.160903 0.00107415 2.252
-0.154048 0.00106942 2.242
-0.147445 0.00106611 2.235
-0.141133 0.00106472 2.232
-0.13526 0.00106666 2.236
-0.129076 0.00106622 2.235
-0.122512 0.00106243 2.227
-0.115782 0.00105674 2.215
-0.109364 0.00105343 2.208
-0.103453 0.00105488 2.211
-0.0975249 0.00105634 2.214
-0.0916211 0.00105827 2.218
-0.0854636 0.00105734 2.216
-0.0791734 0.0010545 2.21
-0.0728496 0.0010507 2.202
-0.0667514 0.00104976 2.2
-0.0608018 0.00105121 2.203
-0.0547859 0.0010517 2.204
-0.0487642 0.00105219 2.205
-0.0427175 0.0010522 2.205
-0.0366539 0.00105174 2.204
-0.0306373 0.0010527 2.206
-0.0245985 0.00105318 2.207
-0.0185457 0.00105319 2.207
-0.0124871 0.00105272 2.206
-0.00645439 0.00105558 2.212
-0.000388737 0.00105845 2.218
0.00569699 0.00105892 2.219
0.0118041 0.00106083 2.223
0.0179412 0.00106321 2.228
0.0241487 0.0010675 2.237
0.0303108 0.00106845 2.239
0.0365977 0.00107273 2.248
0.0429338 0.00107702 2.257
0.0492538 0.00107987 2.263
0.0554594 0.00107986 2.263
0.061692 0.00108032 2.264
0.0679898 0.00108173 2.267
0.0744347 0.00108506 2.274
0.0809177 0.00108838 2.281
0.087668 0.00109456 2.294
0.094694 0.00110312 2.312
0.102168 0.00111551 2.338
0.142049 0.0010776 2.259
0.14745 0.00107184 2.247
0.153332 0.0010699 2.243
0.159119 0.00106747 2.238
0.16451 0.00106267 2.228
0.170228 0.00106024 2.223
0.176156 0.00105924 2.221
0.182482 0.00106063 2.224
0.188485 0.00106011 2.223
0.194132 0.00105768 2.218
0.199389 0.00105334 2.209
0.205526 0.00105377 2.21
0.212913 0.00106039 2.224
0.220867 0.0010694 2.243
-0.321264 -0.0055211 2.441
-0.3146 -0.00552144 2.441
-0.307808 -0.00551952 2.44
-0.301391 -0.00552438 2.442
-0.293996 -0.00551113 2.436
-0.28793 -0.00552276 2.441
-0.280569 -0.0055095 2.435
-0.274926 -0.00553017 2.444
-0.268027 -0.00552595 2.442
-0.262956 -0.00556019 2.457
-0.258219 -0.00560348 2.476
-0.224548 -0.0052897 2.337
-0.216194 -0.00524241 2.316
-0.208951 -0.00522002 2.306
-0.202025 -0.00520441 2.299
-0.194967 -0.00518426 2.29
-0.187957 -0.00516411 2.281
-0.181235 -0.00515074 2.275
-0.174698 -0.00514189 2.271
-0.167738 -0.00511944 2.261
-0.161189 -0.00510831 2.256
-0.154048 -0.00507679 2.242
-0.147577 -0.00506565 2.237
-0.141006 -0.00504997 2.23
-0.1352 -0.00506145 2.235
-0.129134 -0.00506387 2.236
-0.122787 -0.00505496 2.232
-0.116147 -0.00503245 2.222
-0.10981 -0.00502126 2.217
-0.103734 -0.00502139 2.217
-0.0979213 -0.0050351 2.223
-0.0919102 -0.00503974 2.225
-0.0856178 -0.00502852 2.22
-0.0792092 -0.00500824 2.211
-0.0728165 -0.00498567 2.201
-0.0667817 -0.00498576 2.201
-0.060857 -0.0049949 2.205
-0.0548853 -0.00500176 2.208
-0.04872 -0.0049905 2.203
-0.0426399 -0.00498602 2.201
-0.0366372 -0.0049906 2.203
-0.0307067 -0.00500876 2.211
-0.0246653 -0.00501333 2.213
-0.0186213 -0.00502015 2.216
-0.0125267 -0.00501337 2.213
-0.00648064 -0.00503151 2.221
-0.000389087 -0.00502924 2.22
0.00568928 -0.00502018 2.216
0.0117935 -0.0050315 2.221
0.017917 -0.00504054 2.225
0.0241379 -0.00506543 2.236
0.0303108 -0.0050722 2.239
0.036614 -0.00509481 2.249
0.0428957 -0.00510835 2.255
0.0491667 -0.00511736 2.259
0.0553368 -0.00511503 2.258
0.061692 -0.00512855 2.264
0.0680798 -0.00514207 2.27
0.0747293 -0.00517143 2.283
0.0810596 -0.00517587 2.285
0.0877062 -0.00519842 2.295
0.094653 -0.00523455 2.311
0.10208 -0.00529106 2.336
0.110062 -0.00536794 2.37
0.147909 -0.00510417 2.254
0.153605 -0.00508814 2.247
0.159119 -0.00506758 2.238
0.164657 -0.00504927 2.23
0.170228 -0.00503323 2.223
0.175997 -0.00502397 2.219
0.181908 -0.00501924 2.217
0.187807 -0.0050145 2.215
0.193956 -0.00501654 2.216
0.199569 -0.005005 2.211
0.205712 -0.00500703 2.212
0.212051 -0.00501359 2.215
0.220178 -0.00506087 2.236
-0.32258 -0.0122552 2.451
-0.31563 -0.012246 2.449
-0.308438 -0.0122267 2.445
-0.302131 -0.0122424 2.448
-0.295082 -0.0122282 2.445
-0.288638 -0.0122389 2.447
-0.281836 -0.0122346 2.446
-0.275376 -0.0122452 2.448
-0.269343 -0.0122759 2.454
-0.263812 -0.0123316 2.465
-0.235387 -0.0119182 2.382
-0.224163 -0.0116736 2.333
-0.216194 -0.0115891 2.316
-0.209494 -0.0115696 2.312
-0.201937 -0.0115001 2.298
-0.194796 -0.0114505 2.288
-0.187462 -0.011386 2.275
-0.181314 -0.0113914 2.276
-0.175006 -0.0113869 2.275
-0.168034 -0.0113373 2.265
-0.161403 -0.0113077 2.259
-0.154254 -0.011238 2.245
-0.147973 -0.0112284 2.243
-0.141512 -0.0112037 2.238
-0.135623 -0.0112241 2.242
-0.129422 -0.0112194 2.241
-0.123006 -0.0111947 2.236
-0.116199 -0.01113 2.223
-0.109859 -0.0111052 2.218
-0.103734 -0.0111005 2.217
-0.0981854 -0.0111609 2.229
-0.092034 -0.0111561 2.228
-0.0856948 -0.0111263 2.222
-0.0791732 -0.0110664 2.21
-0.0728825 -0.0110316 2.203
-0.0668726 -0.0110368 2.204
-0.0609121 -0.0110519 2.207
-0.055084 -0.0110972 2.216
-0.0489189 -0.0110773 2.212
-0.0429111 -0.0110924 2.215
-0.0368035 -0.0110825 2.213
-0.0308039 -0.0111076 2.218
-0.0246987 -0.0110977 2.216
-0.018638 -0.0111078 2.218
-0.0125437 -0.0110978 2.216
-0.00648647 -0.0111329 2.223
-0.000389613 -0.0111329 2.223
0.00570724 -0.0111329 2.223
0.01182 -0.0111479 2.226
0.0179572 -0.0111679 2.23
0.0241703 -0.0112129 2.239
0.030392 -0.0112429 2.245
0.0366465 -0.0112728 2.251
0.0428576 -0.0112827 2.253
0.0490142 -0.0112776 2.252
0.0553367 -0.0113075 2.258
0.0616918 -0.0113374 2.264
0.0681396 -0.0113773 2.272
0.074631 -0.0114172 2.28
0.0810594 -0.011442 2.285
0.087706 -0.0114919 2.295
0.0946119 -0.0115667 2.31
0.101905 -0.0116766 2.332
0.10983 -0.0118416 2.365
0.147056 -0.0112184 2.241
0.153126 -0.011213 2.24
0.158977 -0.0111926 2.236
0.164731 -0.0111672 2.231
0.170457 -0.0111417 2.226
0.176076 -0.0111112 2.22
0.181579 -0.0110757 2.213
0.187552 -0.0110703 2.212
0.193518 -0.0110648 2.211
0.199298 -0.0110493 2.208
0.205526 -0.0110588 2.21
0.212146 -0.0110883 2.216
0.218504 -0.0111027 2.219
-0.322711 -0.0189743 2.452
-0.316145 -0.0189833 2.453
-0.30869 -0.018938 2.447
-0.30213 -0.0189469 2.448
-0.29496 -0.018917 2.444
-0.287929 -0.0188949 2.441
-0.280683 -0.0188573 2.436
-0.274925 -0.0189203 2.444
-0.269452 -0.0190064 2.455
-0.265844 -0.019232 2.484
-0.233212 -0.0182747 2.36
-0.224066 -0.0180588 2.332
-0.215913 -0.0179125 2.313
-0.209403 -0.0178979 2.311
-0.201673 -0.0177747 2.295
-0.19471 -0.0177136 2.287
-0.187626 -0.0176369 2.277
-0.181154 -0.0176144 2.274
-0.175082 -0.0176306 2.276
-0.16833 -0.017577 2.269
-0.161831 -0.0175467 2.265
-0.154803 -0.0174543 2.253
-0.148632 -0.017455 2.253
-0.142334 -0.01744 2.251
-0.136227 -0.0174483 2.252
-0.129364 -0.0173559 2.24
-0.122786 -0.0172944 2.232
-0.115938 -0.0171864 2.218
-0.109859 -0.0171869 2.218
-0.103967 -0.0172183 2.222
-0.0983612 -0.017304 2.233
-0.0924467 -0.0173431 2.238
-0.0861187 -0.0173047 2.233
-0.079567 -0.0172121 2.221
-0.0733785 -0.0171891 2.218
-0.0674488 -0.0172282 2.223
-0.0613811 -0.0172362 2.224
-0.0552827 -0.0172364 2.224
-0.0491841 -0.0172366 2.224
-0.0431628 -0.0172678 2.228
-0.0369697 -0.0172292 2.223
-0.0308593 -0.0172216 2.222
-0.0247321 -0.0171985 2.219
-0.0186884 -0.0172373 2.224
-0.0126002 -0.0172529 2.226
-0.00650687 -0.0172839 2.23
-0.000390663 -0.0172762 2.229
0.00572263 -0.0172762 2.229
0.0118571 -0.0173071 2.233
0.0180135 -0.0173381 2.237
0.0242458 -0.0174078 2.246
0.0304731 -0.0174464 2.251
0.0366301 -0.0174385 2.25
0.0428004 -0.0174383 2.25
0.0489705 -0.0174382 2.25
0.0554591 -0.0175387 2.263
0.0618551 -0.0175927 2.27
0.0683493 -0.0176622 2.279
0.0746634 -0.0176774 2.281
0.0811656 -0.0177313 2.288
0.0877822 -0.0178007 2.297
0.0944887 -0.0178779 2.307
0.101599 -0.0180169 2.325
0.10918 -0.018218 2.351
0.147384 -0.0174008 2.246
0.153262 -0.0173692 2.242
0.159118 -0.0173376 2.238
0.164878 -0.0172982 2.233
0.170533 -0.0172511 2.227
0.175996 -0.0171884 2.219
0.181168 -0.0171025 2.208
0.187127 -0.017094 2.207
0.19273 -0.0170546 2.202
0.198576 -0.0170383 2.2
0.204874 -0.0170608 2.203
0.211476 -0.0171064 2.209
0.218601 -0.0171908 2.22
-0.322051 -0.0256361 2.447
-0.316015 -0.02569 2.452
-0.308436 -0.0256183 2.445
-0.301511 -0.0255988 2.443
-0.294114 -0.0255375 2.437
-0.286866 -0.0254866 2.432
-0.27999 -0.025467 2.43
-0.274249 -0.0255523 2.438
-0.270109 -0.0257948 2.461
-0.266806 -0.0261316 2.493
-0.233013 -0.0247203 2.358
-0.224161 -0.0244594 2.333
-0.216005 -0.0242614 2.314
-0.208677 -0.0241471 2.303
-0.201584 -0.0240539 2.294
-0.195135 -0.0240339 2.292
-0.188202 -0.0239511 2.284
-0.181153 -0.0238472 2.274
-0.174312 -0.0237643 2.266
-0.16781 -0.0237232 2.262
-0.161259 -0.0236717 2.257
-0.154802 -0.0236306 2.253
-0.148565 -0.0236209 2.252
-0.142459 -0.0236322 2.253
-0.136287 -0.0236329 2.253
-0.129537 -0.0235288 2.243
-0.12284 -0.0234246 2.233
-0.116199 -0.0233203 2.223
-0.110205 -0.0233419 2.225
-0.10406 -0.023332 2.224
-0.0978762 -0.0233116 2.222
-0.0921158 -0.023396 2.23
-0.0861569 -0.0234385 2.234
-0.0799607 -0.023418 2.232
-0.0736428 -0.0233554 2.226
-0.0674485 -0.0233243 2.223
-0.0611048 -0.0232303 2.214
-0.0549344 -0.0231886 2.21
-0.0490291 -0.0232624 2.217
-0.0431626 -0.023378 2.228
-0.0370693 -0.0233887 2.229
-0.0309425 -0.0233784 2.228
-0.0248657 -0.0234101 2.231
-0.0187891 -0.0234627 2.236
-0.0126455 -0.0234418 2.234
-0.00650392 -0.0233894 2.229
-0.00039031 -0.0233684 2.227
0.00572773 -0.0234103 2.231
0.0118677 -0.0234523 2.235
0.0180457 -0.0235151 2.241
0.024278 -0.023599 2.249
0.0304865 -0.0236303 2.252
0.0366462 -0.0236196 2.251
0.0427621 -0.0235879 2.248
0.0490356 -0.0236401 2.253
0.0555323 -0.0237762 2.266
0.0619366 -0.0238494 2.273
0.068439 -0.0239434 2.282
0.0746631 -0.0239326 2.281
0.0813425 -0.024058 2.293
0.0879346 -0.0241415 2.301
0.0946111 -0.0242354 2.31
0.101642 -0.0244027 2.326
0.109225 -0.0246749 2.352
0.159047 -0.023462 2.237
0.164877 -0.0234192 2.233
0.170456 -0.0233449 2.226
0.175916 -0.0232601 2.218
0.181249 -0.0231647 2.209
0.187042 -0.0231323 2.206
0.192729 -0.0230893 2.202
0.198214 -0.0230254 2.196
0.204222 -0.0230243 2.196
0.211187 -0.0231281 2.206
0.218896 -0.0233052 2.223
-0.322576 -0.0323892 2.451
-0.315626 -0.0323648 2.449
-0.30793 -0.032261 2.441
-0.300275 -0.0321572 2.433
-0.292785 -0.0320666 2.426
-0.286393 -0.0320949 2.428
-0.279758 -0.0320967 2.428
-0.274472 -0.0322571 2.44
-0.270218 -0.0325498 2.462
-0.267447 -0.0330407 2.499
-0.223872 -0.0308125 2.33
-0.215817 -0.0305759 2.312
-0.208404 -0.0304186 2.3
-0.201231 -0.0302877 2.29
-0.194538 -0.0302229 2.285
-0.187707 -0.0301316 2.278
-0.180993 -0.0300535 2.272
-0.174311 -0.0299753 2.266
-0.167735 -0.0299103 2.261
-0.161258 -0.0298585 2.257
-0.154733 -0.0297935 2.252
-0.148564 -0.0297945 2.252
-0.142459 -0.0298087 2.253
-0.136407 -0.0298361 2.255
-0.130056 -0.0297974 2.252
-0.12339 -0.0296791 2.243
-0.117139 -0.0296535 2.241
-0.111096 -0.0296808 2.243
-0.104995 -0.0296947 2.244
-0.0986244 -0.0296293 2.239
-0.0924457 -0.0296167 2.238
-0.0864263 -0.029657 2.241
-0.080211 -0.0296311 2.239
-0.0739732 -0.029592 2.236
-0.0676301 -0.0294998 2.229
-0.06127 -0.0293812 2.22
-0.0550335 -0.0293022 2.214
-0.0489845 -0.0293158 2.215
-0.0430461 -0.0294087 2.222
-0.037069 -0.0295017 2.229
-0.0309701 -0.0295151 2.23
-0.0249324 -0.029608 2.237
-0.018789 -0.0295949 2.236
-0.0126624 -0.0296082 2.237
-0.00650096 -0.0294892 2.228
-0.000389957 -0.0294495 2.225
0.00570716 -0.029423 2.223
0.0118198 -0.0294627 2.226
0.0179892 -0.0295684 2.234
0.0241915 -0.0296609 2.241
0.0304457 -0.0297666 2.249
0.0366134 -0.0297664 2.249
0.0427999 -0.0297794 2.25
0.0490353 -0.0298187 2.253
0.0554094 -0.0299243 2.261
0.0618545 -0.030043 2.27
0.0684085 -0.0301881 2.281
0.0747935 -0.0302405 2.285
0.081342 -0.0303459 2.293
0.0879723 -0.0304644 2.302
0.0946515 -0.0305828 2.311
0.101686 -0.0307939 2.327
0.108807 -0.0310049 2.343
0.159046 -0.0295941 2.237
0.164581 -0.0294872 2.229
0.170072 -0.0293802 2.221
0.175598 -0.0292864 2.214
0.18133 -0.0292323 2.21
0.187295 -0.0292179 2.209
0.193078 -0.0291769 2.206
0.198483 -0.029083 2.199
0.204035 -0.0290155 2.194
0.210995 -0.0291464 2.204
0.218796 -0.029383 2.222
-0.324548 -0.0393396 2.466
-0.315882 -0.0391028 2.451
-0.308306 -0.0389935 2.444
-0.300644 -0.0388681 2.436
-0.293265 -0.0387747 2.43
-0.28698 -0.0388248 2.433
-0.280908 -0.0389068 2.438
-0.275258 -0.0390526 2.447
-0.270655 -0.039358 2.466
-0.268622 -0.0400624 2.51
-0.233307 -0.03769 2.361
-0.223966 -0.0372129 2.331
-0.215909 -0.0369272 2.313
-0.207949 -0.0366416 2.295
-0.201142 -0.0365474 2.289
-0.194196 -0.0364213 2.281
