# .PCD v.7 - Point Cloud Data file format
VERSION .7
FIELDS x y z
SIZE 4 4 4
TYPE F F F
COUNT 1 1 1
WIDTH 1908
HEIGHT 1
VIEWPOINT 0 0 0 1 0 0 0
POINTS 1908
DATA ascii
-0.153528 0.252209 2.237
-0.147143 0.251766 2.233
-0.140844 0.251436 2.23
-0.134922 0.251782 2.233
-0.129215 0.252578 2.24
-0.123688 0.253825 2.251
-0.117631 0.254057 2.253
-0.111463 0.254064 2.253
-0.105015 0.253393 2.247
-0.0987746 0.253173 2.245
-0.0926277 0.253178 2.245
-0.0867115 0.25386 2.251
-0.0807263 0.254428 2.256
-0.0745813 0.254545 2.257
-0.068491 0.254887 2.26
-0.0620809 0.253989 2.252
-0.0558633 0.253766 2.25
-0.0495681 0.253093 2.244
-0.0437699 0.255125 2.262
-0.037657 0.255692 2.267
-0.0315166 0.256257 2.272
-0.0252262 0.255582 2.266
-0.0190357 0.255809 2.268
-0.0128454 0.256261 2.272
-0.00663617 0.256826 2.277
-0.000398605 0.256826 2.277
0.00584409 0.257051 2.279
0.0120977 0.257276 2.281
0.0183623 0.257501 2.283
0.0246269 0.257613 2.284
0.0310592 0.259077 2.297
0.0376439 0.261106 2.315
0.044422 0.263698 2.338
0.0513695 0.266515 2.363
0.0585515 0.269782 2.392
0.0657017 0.27226 2.414
0.0727026 0.273723 2.427
0.0798398 0.27541 2.442
0.0872713 0.277774 2.463
-0.332045 0.246737 2.246
-0.322876 0.244445 2.225
-0.316099 0.243911 2.22
-0.310326 0.244146 2.222
-0.304952 0.24471 2.227
-0.297536 0.243625 2.217
-0.290568 0.24287 2.21
-0.284668 0.242994 2.211
-0.280021 0.244217 2.222
-0.275191 0.245329 2.232
-0.26934 0.245563 2.234
-0.263948 0.246235 2.24
-0.259559 0.247897 2.255
-0.254188 0.24868 2.262
-0.247901 0.248582 2.261
-0.241191 0.248045 2.256
-0.235028 0.248057 2.256
-0.228661 0.247848 2.254
-0.221317 0.24654 2.242
-0.214518 0.245782 2.235
-0.207943 0.245243 2.23
-0.201848 0.245253 2.23
-0.195488 0.244933 2.227
-0.189909 0.245603 2.233
-0.184049 0.245943 2.236
-0.177934 0.245952 2.236
-0.171357 0.245301 2.23
-0.16548 0.24564 2.233
-0.159656 0.246089 2.237
-0.153467 0.245987 2.236
-0.146954 0.245335 2.23
-0.140662 0.245012 2.227
-0.134688 0.24524 2.229
-0.129164 0.246347 2.239
-0.12353 0.247344 2.248
-0.117533 0.24768 2.251
-0.111222 0.247356 2.248
-0.10474 0.246592 2.241
-0.0984719 0.246267 2.238
-0.0923851 0.246382 2.239
-0.0866006 0.247377 2.248
-0.0806233 0.247932 2.253
-0.074354 0.247606 2.25
-0.0681614 0.2475 2.249
-0.061974 0.247393 2.248
-0.055916 0.247837 2.252
-0.049637 0.247289 2.247
-0.0436949 0.248502 2.258
-0.0375428 0.248725 2.26
-0.0314489 0.249497 2.267
-0.0251496 0.248618 2.259
-0.0190283 0.2495 2.267
-0.0128461 0.250051 2.272
-0.00664528 0.250932 2.28
-0.000399327 0.251042 2.281
0.00584441 0.250822 2.279
0.0120825 0.250711 2.278
0.0183472 0.251041 2.281
0.0245959 0.25104 2.281
0.0310068 0.252359 2.293
0.0376297 0.254668 2.314
0.0443864 0.257087 2.336
0.0512853 0.259616 2.359
0.0585058 0.263024 2.39
0.0656781 0.265552 2.413
0.0728863 0.267749 2.433
0.0799422 0.269066 2.445
0.0878076 0.272693 2.478
-0.331765 0.240392 2.244
-0.322021 0.237729 2.219
-0.314832 0.236887 2.211
-0.309642 0.237544 2.217
-0.303734 0.237665 2.218
-0.297282 0.237358 2.215
-0.290714 0.236943 2.211
-0.284424 0.236743 2.209
-0.279027 0.237292 2.214
-0.274464 0.238591 2.226
-0.270317 0.240319 2.242
-0.265729 0.241726 2.255
-0.260838 0.242918 2.266
-0.25465 0.24293 2.266
-0.248352 0.242835 2.265
-0.241844 0.242526 2.262
-0.235665 0.242538 2.262
-0.228571 0.241584 2.253
-0.221427 0.240523 2.243
-0.214241 0.239354 2.232
-0.208141 0.239365 2.232
-0.201767 0.239053 2.229
-0.195849 0.239278 2.231
-0.189833 0.239395 2.232
-0.184141 0.239941 2.237
-0.177784 0.239628 2.234
-0.171597 0.23953 2.233
-0.165637 0.239753 2.235
-0.15995 0.240405 2.241
-0.153681 0.240198 2.239
-0.147357 0.239884 2.236
-0.140732 0.239033 2.228
-0.134755 0.239255 2.23
-0.128824 0.239584 2.233
-0.123261 0.240663 2.243
-0.117121 0.240669 2.243
-0.11098 0.240675 2.243
-0.104652 0.240252 2.239
-0.0984771 0.24015 2.238
-0.0924313 0.240369 2.24
-0.0864511 0.240803 2.244
-0.0804487 0.241237 2.248
-0.0741597 0.240812 2.244
-0.0681044 0.241138 2.247
-0.0621152 0.241785 2.253
-0.0561176 0.242539 2.26
-0.0497722 0.241791 2.253
-0.0436585 0.242115 2.256
-0.0374617 0.24201 2.255
-0.0313535 0.242548 2.26
-0.0250953 0.241906 2.254
-0.0189706 0.242551 2.26
-0.0128186 0.243303 2.267
-0.00663398 0.24427 2.276
-0.000398998 0.244592 2.279
0.00583703 0.24427 2.276
0.0120937 0.244699 2.28
0.018324 0.244483 2.278
0.0245972 0.244804 2.281
0.0309949 0.245983 2.292
0.0376317 0.248342 2.314
0.0442748 0.250057 2.33
0.0510706 0.252094 2.349
0.058362 0.255847 2.384
0.0657905 0.259385 2.417
0.0731299 0.261957 2.441
0.0804696 0.264099 2.461
-0.345875 0.239784 2.297
-0.331484 0.234058 2.242
-0.322035 0.231671 2.219
-0.314989 0.230955 2.212
-0.308818 0.230864 2.211
-0.302926 0.230983 2.212
-0.296624 0.230788 2.21
-0.290727 0.230906 2.211
-0.284566 0.230814 2.21
-0.278788 0.231036 2.212
-0.274107 0.232198 2.223
-0.27033 0.234196 2.242
-0.265977 0.235775 2.257
-0.26062 0.236519 2.264
-0.253988 0.236114 2.26
-0.247706 0.236021 2.259
-0.241321 0.235824 2.257
-0.235364 0.236044 2.259
-0.228481 0.235324 2.252
-0.221636 0.234604 2.245
-0.214636 0.233674 2.236
-0.208431 0.233579 2.235
-0.201958 0.233172 2.231
-0.196034 0.23339 2.233
-0.189418 0.232773 2.227
-0.183657 0.2332 2.231
-0.177634 0.233314 2.232
-0.17199 0.23395 2.238
-0.165793 0.233853 2.237
-0.159601 0.233757 2.236
-0.153208 0.233347 2.232
-0.147166 0.233459 2.233
-0.140866 0.233152 2.23
-0.134943 0.233473 2.233
-0.128773 0.233375 2.232
-0.123103 0.234218 2.24
-0.11697 0.234224 2.24
-0.111085 0.234753 2.245
-0.104798 0.234445 2.242
-0.0987463 0.234659 2.244
-0.0924361 0.234246 2.24
-0.0864171 0.234564 2.243
-0.0803455 0.234777 2.245
-0.0741635 0.234677 2.244
-0.0679867 0.234576 2.243
-0.0621736 0.235834 2.255
-0.0561951 0.236674 2.263
-0.0499737 0.236572 2.262
-0.0436608 0.235947 2.256
-0.0374637 0.235845 2.255
-0.0313274 0.23616 2.258
-0.0250966 0.235743 2.254
-0.0189716 0.236372 2.26
-0.0128023 0.236791 2.264
-0.00661684 0.237419 2.27
-0.000397618 0.237524 2.271
0.00582195 0.237419 2.27
0.0120466 0.237523 2.271
0.0182446 0.237209 2.268
0.0245446 0.238044 2.276
0.0309695 0.239507 2.29
0.0375361 0.241388 2.308
0.0442201 0.243373 2.327
0.0510298 0.245462 2.347
0.0583896 0.249434 2.385
0.0658484 0.252986 2.419
0.0730738 0.255074 2.439
0.0805065 0.257476 2.462
0.0889863 0.262596 2.511
-0.329872 0.226818 2.231
-0.321179 0.225002 2.213
-0.314291 0.224406 2.207
-0.308413 0.224522 2.208
-0.301707 0.224027 2.203
-0.295967 0.224244 2.205
-0.290083 0.224359 2.206
-0.284064 0.224372 2.206
-0.278549 0.224791 2.21
-0.27412 0.226126 2.223
-0.270343 0.228071 2.242
-0.266461 0.230017 2.261
-0.260748 0.230436 2.265
-0.254674 0.23055 2.266
-0.247827 0.229951 2.26
-0.241974 0.230268 2.263
-0.234958 0.229465 2.255
-0.228289 0.228967 2.25
-0.221548 0.228367 2.244
-0.215222 0.228174 2.242
-0.208907 0.227981 2.24
-0.201968 0.227074 2.231
-0.195956 0.227186 2.232
-0.189427 0.226686 2.227
-0.183913 0.227408 2.234
-0.177643 0.227213 2.232
-0.171614 0.227323 2.233
-0.165283 0.227026 2.23
-0.159538 0.227543 2.235
-0.153422 0.227551 2.235
-0.147569 0.227965 2.239
-0.141125 0.227463 2.234
-0.135131 0.227674 2.236
-0.128664 0.227069 2.23
-0.122889 0.227687 2.236
-0.11682 0.227794 2.237
-0.111041 0.228513 2.244
-0.104896 0.228518 2.244
-0.0988833 0.228829 2.247
-0.0926471 0.22863 2.245
-0.086537 0.228736 2.246
-0.0804212 0.228843 2.247
-0.0743656 0.229152 2.25
-0.0682327 0.229257 2.251
-0.0622043 0.22977 2.256
-0.0560986 0.230078 2.259
-0.049932 0.230183 2.26
-0.043663 0.229778 2.256
-0.0374656 0.229678 2.255
-0.0313151 0.229884 2.257
-0.025109 0.229681 2.255
-0.0190061 0.230599 2.264
-0.0128029 0.2306 2.264
-0.00661135 0.231008 2.268
-0.000396938 0.230906 2.267
0.00581712 0.231008 2.268
0.0120313 0.231007 2.268
0.0182133 0.230599 2.264
0.0245243 0.231617 2.274
0.0309305 0.232939 2.287
0.0375055 0.234873 2.306
0.0442224 0.23701 2.327
0.0512064 0.239859 2.355
0.0586863 0.244134 2.397
0.0659878 0.246881 2.424
0.0732572 0.249016 2.445
0.0807068 0.251355 2.468
0.0888136 0.255221 2.506
-0.340785 0.223878 2.263
-0.329739 0.220627 2.23
-0.321628 0.219256 2.216
-0.314305 0.218379 2.207
-0.308427 0.218492 2.208
-0.302268 0.218406 2.207
-0.296517 0.218617 2.209
-0.290359 0.218531 2.208
-0.283691 0.218049 2.203
-0.278309 0.218556 2.208
-0.273392 0.219459 2.217
-0.269029 0.220857 2.231
-0.265177 0.22275 2.25
-0.260645 0.224148 2.264
-0.255361 0.224952 2.272
-0.248606 0.224469 2.267
-0.242093 0.224183 2.264
-0.234865 0.223204 2.254
-0.227894 0.222422 2.246
-0.221459 0.222135 2.243
-0.215232 0.222046 2.242
-0.20873 0.22166 2.238
-0.201978 0.220977 2.231
-0.195877 0.220986 2.231
-0.189946 0.221193 2.233
-0.184415 0.221895 2.24
-0.178288 0.221904 2.24
-0.17193 0.221615 2.237
-0.165216 0.220831 2.229
-0.159189 0.220937 2.23
-0.153086 0.220945 2.23
-0.147379 0.221547 2.236
-0.141259 0.221554 2.236
-0.135319 0.221857 2.239
-0.12919 0.221864 2.239
-0.123115 0.221969 2.24
-0.117139 0.222272 2.243
-0.111195 0.222674 2.247
-0.104902 0.222382 2.244
-0.0987562 0.222387 2.244
-0.0924041 0.221896 2.239
-0.0864643 0.222396 2.244
-0.0803536 0.222499 2.245
-0.0743363 0.2229 2.249
-0.0681452 0.222804 2.248
-0.0621247 0.223303 2.253
-0.0560517 0.223702 2.257
-0.0499345 0.224002 2.26
-0.0436846 0.223707 2.257
-0.0375173 0.223808 2.258
-0.0313444 0.223909 2.259
-0.0251771 0.224109 2.261
-0.0190239 0.224605 2.266
-0.0128262 0.224804 2.268
-0.00662334 0.225201 2.272
-0.000398009 0.225301 2.273
0.00582511 0.225102 2.271
0.0120372 0.224904 2.269
0.0182544 0.224903 2.269
0.0246118 0.22619 2.282
0.0309997 0.22718 2.292
0.0375561 0.228863 2.309
0.0442816 0.230943 2.33
0.0515351 0.234905 2.37
0.0587872 0.237975 2.401
0.0660184 0.240351 2.425
0.0731111 0.241834 2.44
0.0808089 0.244903 2.471
-0.339444 0.216832 2.254
-0.329753 0.214537 2.23
-0.321206 0.212915 2.213
-0.313606 0.21187 2.202
-0.307183 0.211595 2.199
-0.30187 0.212089 2.204
-0.296396 0.212486 2.208
-0.290109 0.212307 2.206
-0.283446 0.211838 2.201
-0.277187 0.211657 2.199
-0.272295 0.212536 2.208
-0.267955 0.213895 2.222
-0.264835 0.216314 2.247
-0.261692 0.218828 2.273
-0.256833 0.219995 2.285
-0.249605 0.21914 2.276
-0.242852 0.218669 2.271
-0.235292 0.217428 2.258
-0.228209 0.216572 2.249
-0.221272 0.215812 2.241
-0.215338 0.216014 2.243
-0.208833 0.215639 2.239
-0.202259 0.215167 2.234
-0.195711 0.214694 2.229
-0.189955 0.215088 2.233
-0.184671 0.21606 2.243
-0.178535 0.216069 2.243
-0.172015 0.215595 2.238
-0.165224 0.214736 2.229
-0.159196 0.21484 2.23
-0.153299 0.215136 2.233
-0.147254 0.21524 2.234
-0.141265 0.215439 2.236
-0.135205 0.215542 2.237
-0.129138 0.215645 2.238
-0.122956 0.215554 2.237
-0.116935 0.215753 2.239
-0.111002 0.216144 2.243
-0.104953 0.216341 2.245
-0.098981 0.216732 2.249
-0.0926149 0.216254 2.244
-0.0863914 0.216066 2.242
-0.0802859 0.216166 2.243
-0.0742738 0.216556 2.247
-0.0681485 0.216655 2.248
-0.0620726 0.216948 2.251
-0.0560048 0.217336 2.255
-0.0498044 0.217242 2.254
-0.0435512 0.216859 2.25
-0.0374028 0.216957 2.251
-0.031346 0.21773 2.259
-0.0252117 0.218213 2.264
-0.0190416 0.2186 2.268
-0.0128212 0.218504 2.267
-0.00662658 0.219083 2.273
-0.000398028 0.219083 2.273
0.00583309 0.219179 2.274
0.012075 0.219372 2.276
0.0183519 0.219853 2.281
0.0247316 0.221008 2.293
0.0310959 0.221585 2.299
0.0376556 0.223126 2.315
0.0444548 0.225437 2.339
0.0517333 0.22929 2.379
0.0592798 0.233335 2.421
0.0662938 0.234682 2.435
0.0734143 0.236124 2.45
0.0810091 0.238722 2.477
-0.338253 0.209928 2.246
-0.32947 0.208259 2.228
-0.3218 0.207244 2.217
-0.313904 0.206042 2.204
-0.307056 0.205494 2.198
-0.30065 0.205226 2.195
-0.295871 0.20608 2.204
-0.289727 0.205999 2.203
-0.283587 0.205918 2.202
-0.276947 0.205462 2.197
-0.271566 0.205941 2.202
-0.267002 0.207075 2.214
-0.264375 0.209799 2.243
-0.261819 0.21271 2.274
-0.25662 0.213563 2.283
-0.249835 0.213106 2.278
-0.242328 0.211994 2.266
-0.235303 0.211256 2.258
-0.228422 0.210611 2.251
-0.221677 0.21006 2.245
-0.215252 0.209789 2.242
-0.208749 0.209424 2.238
-0.202268 0.209059 2.234
-0.195983 0.208881 2.232
-0.189964 0.208983 2.233
-0.184103 0.209272 2.236
-0.177907 0.209187 2.235
-0.171484 0.20882 2.231
-0.165602 0.209109 2.234
-0.159561 0.20921 2.235
-0.153444 0.209217 2.235
-0.147129 0.208943 2.232
-0.141146 0.209137 2.234
-0.135332 0.209611 2.239
-0.129433 0.209992 2.243
-0.123292 0.209998 2.243
-0.117045 0.209816 2.241
-0.110958 0.209915 2.242
-0.104958 0.210201 2.245
-0.0989857 0.21058 2.249
-0.0927018 0.210303 2.246
-0.086434 0.210027 2.243
-0.0803255 0.210124 2.244
-0.0742112 0.210222 2.245
-0.0681517 0.210506 2.248
-0.0621031 0.210883 2.252
-0.0560074 0.211167 2.255
-0.0497405 0.210795 2.251
-0.0435146 0.210516 2.248
-0.0374212 0.210893 2.252
-0.0313613 0.211644 2.26
-0.0252575 0.212394 2.268
-0.0190509 0.212489 2.269
-0.0128444 0.212677 2.271
-0.00662398 0.212771 2.272
-0.000398398 0.213052 2.275
0.00584106 0.213239 2.277
0.0121074 0.213707 2.282
0.0184171 0.214362 2.289
0.0247975 0.215297 2.299
0.0311785 0.215858 2.305
0.03782 0.217729 2.325
0.044704 0.220256 2.352
0.0521272 0.224467 2.397
0.0595275 0.227649 2.431
0.0665148 0.22877 2.443
0.0735376 0.229796 2.454
0.0811438 0.232321 2.481
-0.338116 0.203703 2.245
-0.329188 0.201992 2.226
-0.321087 0.200734 2.212
-0.314344 0.200293 2.207
-0.30651 0.199126 2.194
-0.300115 0.198866 2.191
-0.294407 0.19906 2.193
-0.288949 0.199435 2.197
-0.283856 0.200082 2.204
-0.277715 0.200003 2.203
-0.271948 0.200196 2.205
-0.267134 0.201115 2.215
-0.264622 0.20385 2.245
-0.261945 0.206585 2.275
-0.256518 0.207232 2.282
-0.249517 0.206607 2.275
-0.242232 0.205709 2.265
-0.234896 0.20472 2.254
-0.228533 0.204548 2.252
-0.221785 0.204013 2.246
-0.215549 0.203932 2.245
-0.208945 0.203487 2.24
-0.202367 0.203041 2.235
-0.19608 0.202868 2.233
-0.190057 0.202968 2.234
-0.184276 0.203339 2.238
-0.177676 0.202802 2.232
-0.171185 0.202355 2.227
-0.165462 0.202817 2.232
-0.159639 0.203188 2.236
-0.153657 0.203377 2.238
-0.14707 0.202747 2.231
-0.141089 0.202935 2.233
-0.135217 0.203305 2.237
-0.129093 0.203311 2.237
-0.123132 0.203589 2.24
-0.116633 0.202958 2.233
-0.110716 0.203327 2.237
-0.10487 0.203877 2.243
-0.0990782 0.204609 2.251
-0.0927474 0.20425 2.247
-0.0863224 0.203618 2.24
-0.0801144 0.20344 2.238
-0.0741154 0.203807 2.242
-0.0680639 0.204083 2.245
-0.0620784 0.204631 2.251
-0.0559604 0.204816 2.253
-0.0498091 0.204909 2.254
-0.0435553 0.204547 2.25
-0.0374064 0.20464 2.251
-0.0313073 0.205096 2.256
-0.0251807 0.205552 2.261
-0.0190518 0.20628 2.269
-0.0128507 0.206554 2.272
-0.00664178 0.2071 2.278
-0.000399292 0.207282 2.28
0.00585929 0.207645 2.284
0.0121345 0.207918 2.287
0.018426 0.20819 2.29
0.0247987 0.209007 2.299
0.0312747 0.210188 2.312
0.0379357 0.212004 2.332
0.0450102 0.215275 2.368
0.0524776 0.219364 2.413
0.0597751 0.221907 2.441
0.066654 0.22254 2.448
0.0736609 0.223446 2.458
0.0812456 0.225806 2.484
0.0896105 0.229802 2.528
-0.337979 0.197482 2.244
-0.328313 0.195383 2.22
-0.320374 0.194251 2.207
-0.313787 0.193911 2.203
-0.306662 0.193219 2.195
-0.299716 0.192615 2.188
-0.294284 0.192979 2.192
-0.288567 0.193167 2.194
-0.283481 0.193794 2.201
-0.277474 0.193806 2.201
-0.272206 0.194345 2.207
-0.267869 0.195589 2.221
-0.265576 0.198418 2.253
-0.262877 0.201071 2.283
-0.256979 0.201345 2.286
-0.249637 0.200475 2.276
-0.241921 0.199252 2.262
-0.234385 0.198117 2.249
-0.228441 0.198303 2.251
-0.221893 0.19796 2.247
-0.215559 0.197793 2.245
-0.209141 0.197537 2.242
-0.202829 0.19737 2.24
-0.196527 0.197202 2.238
-0.190321 0.197122 2.237
-0.184449 0.197394 2.24
-0.17832 0.197402 2.24
-0.17173 0.196881 2.234
-0.165765 0.197064 2.236
-0.159789 0.197248 2.238
-0.153938 0.197607 2.242
-0.147472 0.197173 2.237
-0.141095 0.196827 2.233
-0.134982 0.196833 2.233
-0.128983 0.197015 2.235
-0.123028 0.197285 2.238
-0.11669 0.196937 2.234
-0.110721 0.197207 2.237
-0.10464 0.1973 2.238
-0.0988626 0.198009 2.246
-0.0927102 0.198014 2.246
-0.0863262 0.197489 2.24
-0.0801538 0.197404 2.239
-0.0740857 0.197584 2.241
-0.0681276 0.198116 2.247
-0.0620536 0.198383 2.25
-0.055938 0.198562 2.252
-0.0498776 0.199006 2.257
-0.0437121 0.199096 2.258
-0.0375078 0.199009 2.257
-0.0313642 0.199276 2.26
-0.0251818 0.199365 2.261
-0.0190694 0.200248 2.271
-0.0128569 0.200425 2.273
-0.00665374 0.201219 2.282
-0.000399835 0.201307 2.283
0.00586469 0.201572 2.286
0.0121297 0.201571 2.286
0.0183947 0.20157 2.286
0.0248214 0.202892 2.301
0.0313573 0.20439 2.318
0.0380512 0.20624 2.339
0.0450313 0.208883 2.369
0.052654 0.213466 2.421
0.0600227 0.216109 2.451
0.067011 0.216988 2.461
0.0741138 0.218043 2.473
0.0814782 0.219626 2.491
0.0895791 0.222797 2.527
-0.349781 0.194494 2.281
-0.336937 0.190754 2.237
-0.327291 0.18872 2.213
-0.318935 0.187368 2.197
-0.31266 0.187209 2.195
-0.305696 0.186624 2.188
-0.299591 0.18655 2.187
-0.294161 0.186903 2.191
-0.288578 0.18717 2.194
-0.282719 0.187267 2.195
-0.27698 0.187448 2.197
-0.271476 0.1878 2.201
-0.268844 0.1902 2.229
-0.266765 0.193112 2.263
-0.264039 0.195682 2.293
-0.257776 0.195693 2.293
-0.249976 0.194508 2.279
-0.242359 0.193408 2.266
-0.235124 0.192565 2.256
-0.229161 0.192745 2.258
-0.222298 0.192156 2.251
-0.215856 0.191909 2.248
-0.209616 0.191832 2.247
-0.203381 0.191756 2.246
-0.196799 0.191337 2.241
-0.190584 0.19126 2.24
-0.184786 0.191609 2.244
-0.178885 0.191873 2.247
-0.172276 0.191368 2.241
-0.165847 0.191033 2.237
-0.160081 0.191467 2.242
-0.154013 0.191559 2.243
-0.14761 0.191224 2.239
-0.141101 0.190717 2.233
-0.134806 0.190467 2.23
-0.1287 0.190472 2.23
-0.122868 0.190905 2.235
-0.116748 0.19091 2.235
-0.111022 0.191598 2.243
-0.104739 0.191346 2.24
-0.0989549 0.192034 2.248
-0.0927143 0.191868 2.246
-0.0864456 0.191615 2.243
-0.0800141 0.190935 2.235
-0.0740559 0.191366 2.24
-0.0680396 0.191711 2.244
-0.0619184 0.191799 2.245
-0.0558908 0.192228 2.25
-0.0498135 0.192572 2.254
-0.0437528 0.193087 2.26
-0.0375759 0.193174 2.261
-0.0313934 0.193261 2.262
-0.0251941 0.193262 2.262
-0.0190535 0.193861 2.269
-0.0128405 0.193948 2.27
-0.00662488 0.194119 2.272
-0.000398627 0.194461 2.276
0.00585468 0.194973 2.282
0.012109 0.194973 2.282
0.0184116 0.195485 2.288
0.0248872 0.197107 2.307
0.0314669 0.198729 2.326
0.0381017 0.200095 2.342
0.0450712 0.202571 2.371
0.0528303 0.207524 2.429
0.0601967 0.209999 2.458
0.067259 0.211022 2.47
0.0742968 0.211788 2.479
0.0817762 0.213578 2.5
0.0898311 0.216479 2.534
-0.34412 0.185208 2.244
-0.333636 0.182826 2.215
-0.325972 0.18193 2.204
-0.318802 0.181282 2.196
-0.311817 0.180715 2.189
-0.305428 0.180479 2.186
-0.299328 0.180408 2.185
-0.293636 0.180584 2.187
-0.288326 0.181008 2.192
-0.282344 0.181019 2.192
-0.277243 0.181607 2.199
-0.27272 0.182609 2.211
-0.270423 0.18518 2.242
-0.26878 0.188329 2.28
-0.265316 0.190321 2.304
-0.25891 0.190249 2.303
-0.250315 0.188524 2.282
-0.242903 0.187625 2.271
-0.235759 0.186891 2.262
-0.229475 0.186817 2.261
-0.222702 0.18633 2.255
-0.21596 0.185843 2.249
-0.209531 0.185604 2.246
-0.20357 0.185777 2.248
-0.196895 0.185289 2.242
-0.190507 0.185049 2.239
-0.184217 0.184891 2.237
-0.178494 0.185312 2.242
-0.17259 0.185567 2.245
-0.166595 0.185739 2.247
-0.160588 0.185911 2.249
-0.154294 0.185752 2.247
-0.14755 0.185015 2.238
-0.14117 0.18469 2.234
-0.134751 0.184282 2.229
-0.129052 0.184866 2.236
-0.123148 0.185202 2.24
-0.117118 0.185372 2.242
-0.111077 0.185543 2.244
-0.104883 0.185464 2.243
-0.0989151 0.185799 2.247
-0.0925943 0.185473 2.243
-0.0863722 0.185311 2.241
-0.0801965 0.185232 2.24
-0.0743235 0.185896 2.248
-0.068376 0.186478 2.255
-0.0620589 0.186068 2.25
-0.0558932 0.18607 2.25
-0.049683 0.185907 2.248
-0.0436772 0.18657 2.256
-0.0375276 0.186738 2.258
-0.0314086 0.187152 2.263
-0.0252731 0.18765 2.269
-0.0190963 0.188064 2.274
-0.0128297 0.187569 2.268
-0.00659891 0.187156 2.263
-0.000396367 0.187156 2.263
0.00582927 0.1879 2.272
0.0120883 0.188396 2.278
0.0184204 0.189305 2.289
0.0248667 0.190627 2.305
0.0314141 0.192032 2.322
0.0380871 0.193602 2.341
0.0451112 0.196247 2.373
0.0527238 0.200462 2.424
0.0603463 0.203768 2.464
0.067398 0.204675 2.475
0.0746896 0.206078 2.492
0.0823358 0.208142 2.517
0.0902249 0.210453 2.545
-0.338151 0.175964 2.205
-0.330786 0.175257 2.196
-0.324652 0.175189 2.195
-0.318958 0.17536 2.197
-0.31254 0.175132 2.194
-0.305578 0.174584 2.187
-0.299613 0.174595 2.187
-0.293378 0.174446 2.185
-0.288073 0.174856 2.19
-0.281968 0.174786 2.189
-0.27738 0.175675 2.2
-0.272607 0.176484 2.21
-0.270071 0.17881 2.239
-0.26879 0.182094 2.28
-0.265211 0.183941 2.303
-0.259258 0.18419 2.306
-0.251202 0.182922 2.29
-0.244196 0.182372 2.283
-0.236914 0.181583 2.273
-0.22989 0.180952 2.265
-0.222809 0.180242 2.256
-0.215873 0.179611 2.248
-0.209259 0.17922 2.243
-0.202944 0.179068 2.241
-0.196639 0.178916 2.239
-0.190514 0.178924 2.239
-0.184142 0.178691 2.236
-0.178103 0.178778 2.237
-0.172597 0.179424 2.245
-0.16675 0.179751 2.249
-0.160666 0.179837 2.25
-0.153957 0.179204 2.242
-0.147424 0.17873 2.236
-0.141239 0.178656 2.235
-0.13518 0.178742 2.236
-0.12923 0.178987 2.239
-0.123263 0.179232 2.242
-0.117018 0.179076 2.24
-0.110982 0.179241 2.242
-0.105028 0.179565 2.246
-0.0989631 0.179729 2.248
-0.0925981 0.179333 2.243
-0.0864143 0.179257 2.242
-0.0803788 0.1795 2.245
-0.0743927 0.179903 2.25
-0.0683485 0.180226 2.254
-0.0621442 0.180148 2.253
-0.0558955 0.179911 2.25
-0.0496188 0.179513 2.245
-0.0435241 0.179755 2.248
-0.0374627 0.180236 2.254
-0.0313682 0.180718 2.26
-0.0252853 0.181518 2.27
-0.0190635 0.181519 2.27
-0.0128359 0.18144 2.269
-0.00659044 0.180721 2.26
-0.000396033 0.180801 2.261
0.00581925 0.18136 2.268
0.0121047 0.1824 2.281
0.0185017 0.183838 2.299
0.0249432 0.184877 2.312
0.031456 0.185915 2.325
0.0381212 0.187353 2.343
0.0452271 0.19023 2.379
0.0530087 0.194866 2.437
0.0604467 0.197343 2.468
0.0676731 0.198699 2.485
0.0749325 0.199896 2.5
0.0824373 0.201492 2.52
0.0903704 0.203807 2.549
-0.337856 0.169784 2.203
-0.329743 0.168716 2.189
-0.323776 0.168727 2.189
-0.317808 0.168738 2.189
-0.312124 0.168903 2.191
-0.30531 0.168452 2.185
-0.299624 0.168616 2.187
-0.293791 0.168704 2.188
-0.288347 0.169023 2.192
-0.282622 0.169187 2.194
-0.277642 0.169814 2.202
-0.272987 0.170672 2.213
-0.269598 0.172378 2.235
-0.269154 0.17609 2.283
-0.265912 0.178105 2.309
-0.259605 0.178115 2.309
-0.250992 0.176504 2.288
-0.243777 0.175819 2.279
-0.236194 0.174825 2.266
-0.229289 0.174293 2.259
-0.222422 0.173762 2.252
-0.215977 0.173538 2.249
-0.209267 0.173083 2.243
-0.203042 0.173014 2.242
-0.196822 0.172944 2.241
-0.190692 0.172952 2.241
-0.184314 0.172727 2.238
-0.178031 0.17258 2.236
-0.172373 0.173049 2.242
-0.166534 0.173365 2.246
-0.160243 0.173216 2.244
-0.153757 0.172836 2.239
-0.147298 0.172456 2.234
-0.141434 0.172771 2.238
-0.135306 0.172776 2.238
-0.129293 0.172935 2.24
-0.122938 0.172632 2.236
-0.116919 0.172791 2.238
-0.110887 0.172949 2.24
-0.104892 0.173185 2.243
-0.0986589 0.173035 2.241
-0.0926018 0.173193 2.243
-0.0864948 0.173274 2.244
-0.0804536 0.173509 2.247
-0.0742965 0.173512 2.247
-0.0683513 0.174055 2.254
-0.0622571 0.174289 2.257
-0.0560468 0.174214 2.256
-0.0497534 0.17383 2.251
-0.0435839 0.173832 2.251
-0.0374974 0.17422 2.256
-0.0313556 0.174453 2.259
-0.025264 0.175149 2.268
-0.0190726 0.175382 2.271
-0.012876 0.175768 2.276
-0.00662278 0.175383 2.271
-0.0003978 0.175383 2.271
0.00582462 0.175305 2.27
0.0121424 0.176695 2.288
0.0185104 0.177621 2.3
0.0249442 0.178547 2.312
0.0314166 0.179318 2.322
0.0380902 0.180784 2.341
0.0452099 0.18364 2.378
0.0530326 0.188271 2.438
0.0604246 0.190509 2.467
0.0675397 0.19151 2.48
0.0748156 0.192743 2.496
0.0821134 0.193821 2.51
0.0895586 0.195053 2.526
-0.338021 0.163837 2.204
-0.329603 0.162659 2.188
-0.322899 0.162298 2.183
-0.316512 0.162086 2.18
-0.310852 0.162245 2.182
-0.304342 0.161958 2.178
-0.298675 0.162117 2.18
-0.292727 0.162127 2.18
-0.287831 0.162731 2.188
-0.282117 0.16289 2.19
-0.276769 0.163271 2.195
-0.272133 0.164099 2.206
-0.269487 0.166192 2.234
-0.269989 0.170367 2.29
-0.267304 0.172683 2.321
-0.259951 0.172022 2.312
-0.25144 0.170543 2.292
-0.244214 0.169882 2.283
-0.236515 0.168849 2.269
-0.228993 0.16789 2.256
-0.222233 0.167452 2.25
-0.215889 0.167311 2.248
-0.209462 0.167095 2.245
-0.20314 0.166954 2.243
-0.196654 0.166663 2.239
-0.190444 0.166596 2.238
-0.184403 0.166677 2.239
-0.178276 0.166684 2.239
-0.172226 0.166765 2.24
-0.165947 0.166622 2.238
-0.15975 0.166553 2.237
-0.15342 0.166336 2.234
-0.147369 0.166416 2.235
-0.141566 0.166794 2.24
-0.135311 0.16665 2.238
-0.128894 0.166282 2.233
-0.122613 0.166064 2.23
-0.116819 0.166515 2.236
-0.110892 0.166817 2.24
-0.104755 0.166821 2.24
-0.0985306 0.166676 2.238
-0.0926467 0.167127 2.244
-0.0866909 0.167502 2.249
-0.0805283 0.167506 2.249
-0.0742001 0.167136 2.244
-0.0683236 0.167809 2.253
-0.0623146 0.168259 2.259
-0.0561732 0.16841 2.261
-0.0498879 0.168114 2.257
-0.0437212 0.16819 2.258
-0.0375654 0.168341 2.26
-0.0313846 0.168416 2.261
-0.0252539 0.168864 2.267
-0.019065 0.169089 2.27
-0.0128765 0.169536 2.276
-0.00662887 0.169313 2.273
-0.000398692 0.169537 2.276
0.00584794 0.16976 2.279
0.0121959 0.171175 2.298
0.0185917 0.172068 2.31
0.0250207 0.172738 2.319
0.0314449 0.173109 2.324
0.0380917 0.174374 2.341
0.0450215 0.176384 2.368
0.0524256 0.17951 2.41
0.060231 0.183158 2.459
0.0675695 0.184794 2.481
0.0746386 0.185462 2.49
0.0819857 0.186651 2.506
0.0893848 0.187765 2.521
-0.346535 0.158948 2.22
-0.338338 0.157957 2.206
-0.329463 0.156607 2.187
-0.321874 0.155829 2.176
-0.314344 0.155052 2.165
-0.308725 0.155205 2.167
-0.302955 0.155287 2.168
-0.297315 0.15544 2.17
-0.291663 0.155592 2.172
-0.286393 0.15596 2.177
-0.28174 0.156686 2.187
-0.277157 0.157483 2.198
-0.272513 0.158281 2.209
-0.269979 0.160368 2.238
-0.269998 0.164103 2.29
-0.267774 0.16662 2.325
-0.26041 0.165984 2.316
-0.251778 0.164488 2.295
-0.243795 0.16335 2.279
-0.236211 0.162426 2.266
-0.228798 0.161574 2.254
-0.222438 0.161438 2.252
-0.216377 0.161518 2.253
-0.210122 0.161453 2.252
-0.203782 0.161317 2.25
-0.197188 0.160966 2.245
-0.190876 0.160829 2.243
-0.184492 0.160621 2.24
-0.178522 0.160771 2.242
-0.172078 0.16049 2.238
-0.165805 0.160353 2.236
-0.159684 0.160358 2.236
-0.153769 0.160579 2.239
-0.147705 0.160656 2.24
-0.141634 0.160733 2.241
-0.135074 0.160236 2.234
-0.128725 0.159954 2.23
-0.122728 0.160102 2.232
-0.116927 0.160537 2.238
-0.111044 0.1609 2.243
-0.104666 0.160545 2.238
-0.0984462 0.160405 2.236
-0.0924437 0.160624 2.239
-0.0864628 0.160914 2.243
-0.0804597 0.161204 2.247
-0.0743352 0.161279 2.248
-0.0683868 0.161783 2.255
-0.0622618 0.161929 2.257
-0.0561753 0.162218 2.261
-0.0499561 0.162149 2.26
-0.0438196 0.162366 2.263
-0.0375668 0.162152 2.26
-0.031358 0.162081 2.259
-0.025188 0.162226 2.261
-0.0190405 0.162657 2.267
-0.0128544 0.163017 2.272
-0.00662037 0.162873 2.27
-0.000398707 0.163304 2.276
0.00585842 0.163806 2.283
0.0122123 0.165097 2.301
0.0185682 0.165527 2.307
0.0249677 0.166029 2.314
0.031419 0.166602 2.322
0.0380768 0.167892 2.34
0.0449662 0.169684 2.365
0.0522535 0.172337 2.402
0.0603068 0.17664 2.462
0.0675993 0.178072 2.482
0.0747613 0.178931 2.494
0.0821524 0.180147 2.511
0.0900263 0.182153 2.539
-0.343736 0.151641 2.202
-0.335588 0.150687 2.188
-0.327967 0.149939 2.177
-0.320701 0.149329 2.168
-0.314209 0.149064 2.164
-0.308308 0.149073 2.164
-0.301847 0.148807 2.16
-0.295817 0.148748 2.159
-0.29006 0.148826 2.16
-0.286008 0.1498 2.174
-0.281362 0.150498 2.184
-0.277544 0.151678 2.201
-0.272275 0.152101 2.207
-0.270109 0.154315 2.239
-0.269653 0.157632 2.287
-0.267898 0.160329 2.326
-0.260756 0.159855 2.319
-0.252664 0.15876 2.303
-0.244552 0.157597 2.286
-0.23674 0.156571 2.271
-0.229111 0.155613 2.257
-0.222841 0.155552 2.256
-0.216768 0.155628 2.257
-0.210409 0.155497 2.255
-0.20406 0.155366 2.253
-0.197107 0.154752 2.244
-0.191053 0.154828 2.245
-0.184416 0.154421 2.239
-0.178528 0.154634 2.242
-0.172161 0.154433 2.239
-0.165736 0.154163 2.235
-0.159404 0.153961 2.232
-0.153225 0.153898 2.231
-0.147314 0.15411 2.234
-0.14126 0.154184 2.235
-0.134958 0.153982 2.232
-0.128672 0.153779 2.229
-0.122622 0.153853 2.23
-0.116566 0.153926 2.231
-0.110702 0.154275 2.236
-0.104529 0.15421 2.235
-0.0985818 0.154489 2.239
-0.092447 0.154492 2.239
-0.0864274 0.154703 2.242
-0.0804268 0.154982 2.246
-0.0744371 0.155329 2.251
-0.0683286 0.15547 2.253
-0.0622365 0.155679 2.256
-0.0560779 0.15575 2.257
-0.0498695 0.155683 2.256
-0.0437244 0.155823 2.258
-0.0375515 0.155893 2.259
-0.031373 0.155964 2.26
-0.0251889 0.156034 2.261
-0.0190244 0.15631 2.265
-0.0128605 0.156863 2.273
-0.00662645 0.156794 2.272
-0.000398896 0.15714 2.277
0.00586633 0.157761 2.286
0.0121862 0.15845 2.296
0.0185206 0.158795 2.301
0.0248823 0.159139 2.306
0.0313796 0.160035 2.319
0.0380294 0.161276 2.337
0.0448537 0.162793 2.359
0.0522336 0.16569 2.401
0.0606764 0.170932 2.477
0.0683099 0.173069 2.508
0.0753336 0.173412 2.513
0.0824825 0.173961 2.521
0.0903487 0.175821 2.548
-0.341248 0.144563 2.186
-0.333144 0.143647 2.172
-0.325567 0.142929 2.161
-0.319232 0.14274 2.158
-0.313347 0.14275 2.158
-0.308317 0.143156 2.164
-0.302275 0.143099 2.163
-0.296237 0.143042 2.162
-0.29101 0.143382 2.167
-0.286675 0.144184 2.179
-0.281114 0.144392 2.182
-0.276166 0.14493 2.19
-0.271667 0.145732 2.202
-0.269755 0.147991 2.236
-0.270605 0.151905 2.295
-0.268828 0.154494 2.334
-0.260989 0.153642 2.321
-0.252233 0.152194 2.299
-0.243918 0.150944 2.28
-0.236122 0.149959 2.265
-0.229321 0.149569 2.259
-0.223342 0.149709 2.261
-0.217448 0.149914 2.264
-0.210696 0.149524 2.258
-0.204248 0.149332 2.255
-0.197728 0.149074 2.251
-0.191655 0.149146 2.252
-0.184587 0.148424 2.241
-0.178136 0.148165 2.237
-0.171783 0.147972 2.234
-0.165593 0.147911 2.233
-0.159481 0.147917 2.233
-0.153299 0.147856 2.232
-0.147319 0.147993 2.234
-0.141265 0.148064 2.235
-0.135023 0.147936 2.233
-0.128734 0.147742 2.23
-0.122461 0.147547 2.227
-0.116361 0.147551 2.227
-0.110458 0.14782 2.231
-0.104486 0.148023 2.234
-0.0985412 0.148291 2.238
-0.0925327 0.148493 2.241
-0.0865075 0.148695 2.244
-0.0803222 0.148632 2.243
-0.0742082 0.1487 2.244
-0.067967 0.148504 2.241
-0.0619352 0.148771 2.245
-0.0558314 0.148906 2.247
-0.0497165 0.14904 2.249
-0.0436097 0.149241 2.252
-0.037503 0.149507 2.256
-0.0313602 0.149707 2.259
-0.0251564 0.149642 2.258
-0.0189999 0.149908 2.262
-0.012844 0.150438 2.27
-0.00662376 0.150505 2.271
-0.000398735 0.150836 2.276
0.00586654 0.151499 2.286
0.0121813 0.152095 2.295
0.0185051 0.15236 2.299
0.0248508 0.152624 2.303
0.0313266 0.153418 2.315
0.0379331 0.154478 2.331
0.0447602 0.156 2.354
0.0519744 0.158318 2.389
0.06085 0.164612 2.484
0.0685029 0.166664 2.515
0.0754561 0.166794 2.517
0.0824199 0.166924 2.519
0.09021 0.168578 2.544
-0.33876 0.137573 2.17
-0.330086 0.136441 2.152
-0.323467 0.136133 2.147
-0.317909 0.136269 2.149
-0.313357 0.136849 2.158
-0.309181 0.137619 2.17
-0.303402 0.137691 2.171
-0.297479 0.1377 2.171
-0.291287 0.137581 2.169
-0.286946 0.138351 2.181
-0.280736 0.138233 2.179
-0.276048 0.138875 2.189
-0.271798 0.139772 2.203
-0.269763 0.141873 2.236
-0.272028 0.146387 2.307
-0.270794 0.149187 2.351
-0.261447 0.147545 2.325
-0.252241 0.145903 2.299
-0.243711 0.144578 2.278
-0.236234 0.143823 2.266
-0.229836 0.143704 2.264
-0.223646 0.143711 2.264
-0.217551 0.143781 2.265
-0.210703 0.143343 2.258
-0.204345 0.143223 2.256
-0.197735 0.142911 2.251
-0.191576 0.142918 2.251
-0.184675 0.142352 2.242
-0.177982 0.141913 2.235
-0.17148 0.141601 2.23
-0.165376 0.141607 2.23
-0.159272 0.141612 2.23
-0.153372 0.141807 2.233
-0.147258 0.141812 2.233
-0.14127 0.141944 2.235
-0.135028 0.141821 2.233
-0.128796 0.141698 2.231
-0.1223 0.141258 2.224
-0.115999 0.141008 2.22
-0.110115 0.141265 2.224
-0.104256 0.141587 2.229
-0.0987206 0.142416 2.242
-0.0927836 0.142736 2.247
-0.0865875 0.142676 2.246
-0.0801816 0.142234 2.239
-0.0739461 0.142046 2.236
-0.067757 0.141921 2.234
-0.0617717 0.142241 2.239
-0.0557587 0.14256 2.244
-0.0496739 0.142753 2.247
-0.0435531 0.142881 2.249
-0.0374876 0.143264 2.255
-0.0313752 0.143583 2.26
-0.0252463 0.143965 2.266
-0.0190677 0.14422 2.27
-0.012867 0.144474 2.274
-0.0066269 0.144347 2.272
-0.000399099 0.144729 2.278
0.00587187 0.145364 2.288
0.0121976 0.145999 2.298
0.018554 0.146443 2.305
0.0248732 0.146443 2.305
0.0313276 0.147077 2.315
0.0379506 0.148156 2.332
0.0447427 0.149489 2.353
0.0521067 0.152155 2.395
0.060754 0.157554 2.48
0.0684235 0.159584 2.512
0.0753387 0.159646 2.513
0.0822918 0.15977 2.515
0.0901421 0.161482 2.542
-0.337208 0.131033 2.16
-0.330095 0.130557 2.152
-0.323325 0.130202 2.146
-0.317622 0.130271 2.147
-0.312639 0.130644 2.153
-0.309047 0.131623 2.169
-0.30355 0.131814 2.172
-0.298036 0.132004 2.175
-0.291698 0.13183 2.172
-0.28656 0.132203 2.178
-0.280357 0.132089 2.176
-0.275299 0.132522 2.183
-0.27156 0.133623 2.201
-0.269409 0.135573 2.233
-0.263029 0.142032 2.339
-0.253017 0.140036 2.306
-0.244254 0.138647 2.283
-0.237179 0.138168 2.275
-0.230655 0.137993 2.272
-0.224048 0.137756 2.268
-0.217173 0.137338 2.261
-0.210523 0.13704 2.256
-0.204442 0.137107 2.257
-0.198004 0.136931 2.254
-0.191497 0.136694 2.25
-0.184846 0.136335 2.244
-0.177908 0.135733 2.234
-0.171409 0.135434 2.229
-0.165233 0.135379 2.228
-0.159491 0.135688 2.233
-0.153789 0.136057 2.239
-0.147526 0.13594 2.237
-0.1414 0.135945 2.237
-0.135153 0.135827 2.235
-0.128973 0.135771 2.234
-0.122524 0.13541 2.228
-0.116264 0.135231 2.225
-0.110267 0.135356 2.227
-0.104633 0.135967 2.237
-0.0985916 0.136092 2.239
-0.0924975 0.136156 2.24
-0.0863204 0.136098 2.239
-0.0800409 0.135857 2.235
-0.0739484 0.135921 2.236
-0.0677895 0.135862 2.235
-0.0617185 0.135986 2.237
-0.0557108 0.136291 2.242
-0.0496092 0.136415 2.244
-0.0434964 0.136538 2.246
-0.0373392 0.136539 2.246
-0.0313068 0.137087 2.255
-0.0251803 0.137392 2.26
-0.0190347 0.137757 2.266
-0.0128109 0.137636 2.264
-0.00663003 0.138184 2.273
-0.000399988 0.138792 2.283
0.00589002 0.139521 2.295
0.012214 0.139886 2.301
0.0185466 0.140068 2.304
0.0248848 0.140189 2.306
0.0313286 0.140735 2.315
0.0379356 0.141706 2.331
0.0447822 0.143164 2.355
0.0520866 0.145533 2.394
0.0606335 0.150456 2.475
0.0684257 0.152703 2.512
0.075461 0.153005 2.517
0.0824253 0.153124 2.519
0.0900031 0.154276 2.538
-0.335812 0.124606 2.151
-0.328876 0.124209 2.144
-0.32258 0.124043 2.141
-0.317631 0.124399 2.147
-0.313083 0.124929 2.156
-0.309198 0.125749 2.17
-0.303 0.125641 2.168
-0.297359 0.125765 2.17
-0.291303 0.125715 2.169
-0.286699 0.126302 2.179
-0.28088 0.126368 2.18
-0.276316 0.127013 2.191
-0.272307 0.127948 2.207
-0.274841 0.138349 2.386
-0.263037 0.135631 2.339
-0.254341 0.13442 2.318
-0.245651 0.133152 2.296
-0.238437 0.132636 2.287
-0.231271 0.132121 2.278
-0.223758 0.131374 2.265
-0.216603 0.1308 2.255
-0.210062 0.130574 2.251
-0.204267 0.130812 2.255
-0.198186 0.130876 2.256
-0.191673 0.130649 2.252
-0.185016 0.130307 2.246
-0.177834 0.129558 2.233
-0.171183 0.129156 2.226
-0.16509 0.129161 2.226
-0.159424 0.129514 2.232
-0.153725 0.129867 2.238
-0.147465 0.129755 2.236
-0.141089 0.129527 2.232
-0.134915 0.129474 2.231
-0.128746 0.129419 2.23
-0.122748 0.129539 2.232
-0.116685 0.129601 2.233
-0.110964 0.130068 2.241
-0.104777 0.130014 2.24
-0.0984625 0.129784 2.236
-0.0922938 0.129729 2.235
-0.0862073 0.12979 2.236
-0.0800434 0.129734 2.235
-0.074083 0.130027 2.24
-0.0680645 0.130261 2.244
-0.0618583 0.130147 2.242
-0.0557374 0.130207 2.243
-0.0496107 0.130267 2.244
-0.0434977 0.130384 2.246
-0.0373071 0.130269 2.244
-0.0312661 0.130735 2.252
-0.0252034 0.131316 2.262
-0.0190353 0.131549 2.266
-0.0128282 0.131607 2.267
-0.00663607 0.132072 2.275
-0.000401051 0.132885 2.289
0.00589277 0.133291 2.296
0.0121931 0.133349 2.297
0.0184828 0.133291 2.296
0.0248316 0.13358 2.301
0.031316 0.134334 2.314
0.0378879 0.135146 2.328
0.0446124 0.136189 2.346
0.0520664 0.138916 2.393
0.0608068 0.144081 2.482
0.0685367 0.146053 2.516
0.0758231 0.146805 2.529
0.0827878 0.146861 2.53
0.0901832 0.147613 2.543
-0.343429 0.119323 2.162
-0.335196 0.118503 2.147
-0.329038 0.118401 2.145
-0.323643 0.118575 2.148
-0.318675 0.118914 2.154
-0.313092 0.119032 2.156
-0.308066 0.119371 2.162
-0.302309 0.119434 2.163
-0.297778 0.119994 2.173
-0.29252 0.120278 2.178
-0.287891 0.120837 2.188
-0.281918 0.120845 2.188
-0.276575 0.121128 2.193
-0.272561 0.122019 2.209
-0.263381 0.129395 2.342
-0.255225 0.128518 2.326
-0.246407 0.127253 2.303
-0.239069 0.126707 2.293
-0.231379 0.12594 2.279
-0.223665 0.125117 2.264
-0.216897 0.124792 2.258
-0.210348 0.124576 2.254
-0.204545 0.124803 2.258
-0.198103 0.124643 2.255
-0.191508 0.124372 2.25
-0.184856 0.124045 2.244
-0.177759 0.123387 2.232
-0.17165 0.123392 2.232
-0.165465 0.123341 2.231
-0.159643 0.123567 2.235
-0.153523 0.123571 2.235
-0.147403 0.123576 2.235
-0.140903 0.123248 2.229
-0.134858 0.123307 2.23
-0.128692 0.123255 2.229
-0.123026 0.123701 2.237
-0.117055 0.123871 2.24
-0.111016 0.123984 2.242
-0.104826 0.123932 2.241
-0.0984654 0.123659 2.236
-0.0922139 0.123495 2.233
-0.08594 0.123277 2.229
-0.0796876 0.123058 2.225
-0.0738867 0.123558 2.234
-0.0680665 0.124113 2.244
-0.0619981 0.124281 2.247
-0.0558136 0.124227 2.246
-0.0496122 0.124118 2.244
-0.0434796 0.124175 2.245
-0.0372749 0.12401 2.242
-0.0312531 0.124509 2.251
-0.0251261 0.124731 2.255
-0.0190359 0.12534 2.266
-0.0128399 0.125506 2.269
-0.00663626 0.125838 2.275
-0.000400012 0.126281 2.283
0.00587755 0.126668 2.29
0.0121775 0.126889 2.294
0.018435 0.126667 2.29
0.0247784 0.126999 2.296
0.0312358 0.127662 2.308
0.0378239 0.128546 2.324
0.0445567 0.129595 2.343
0.0517851 0.131641 2.38
0.0606616 0.136949 2.476
0.0686477 0.139381 2.52
0.0759453 0.140098 2.533
0.0830193 0.140316 2.537
0.0908951 0.141752 2.563
-0.342961 0.113253 2.159
-0.332862 0.111845 2.132
-0.327052 0.111853 2.132
-0.322295 0.112227 2.139
-0.317499 0.112602 2.146
-0.31005 0.112033 2.135
-0.306791 0.112985 2.153
-0.303294 0.113884 2.17
-0.29847 0.114311 2.178
-0.292258 0.114213 2.176
-0.286714 0.114378 2.179
-0.281926 0.114857 2.188
-0.277591 0.115547 2.201
-0.273556 0.116394 2.217
-0.262601 0.122616 2.335
-0.254903 0.121993 2.323
-0.247163 0.121316 2.31
-0.239492 0.12064 2.297
-0.231892 0.119963 2.284
-0.224363 0.119286 2.271
-0.21796 0.119187 2.269
-0.211194 0.118877 2.263
-0.204912 0.11883 2.262
-0.198372 0.118625 2.258
-0.191768 0.118368 2.253
-0.184944 0.117952 2.245
-0.178082 0.117484 2.236
-0.171885 0.117436 2.235
-0.166063 0.117651 2.239
-0.160219 0.117865 2.243
-0.153802 0.117659 2.239
-0.147539 0.117558 2.237
-0.140844 0.117089 2.228
-0.134741 0.117093 2.228
-0.128638 0.117096 2.228
-0.12303 0.117573 2.237
-0.117006 0.117681 2.239
-0.110871 0.117684 2.239
-0.104642 0.117582 2.237
-0.0986002 0.11769 2.239
-0.0923404 0.117535 2.236
-0.0859424 0.117169 2.229
-0.0796898 0.116961 2.225
-0.0738226 0.117331 2.232
-0.0679471 0.117754 2.24
-0.0619723 0.118071 2.246
-0.0558151 0.118073 2.246
-0.0496136 0.117969 2.244
-0.0435583 0.118233 2.249
-0.037409 0.118287 2.25
-0.0312956 0.118498 2.254
-0.0251937 0.118867 2.261
-0.0190784 0.119393 2.271
-0.0129025 0.119867 2.28
-0.00664229 0.119709 2.277
-0.000399673 0.11992 2.281
0.00586231 0.120077 2.284
0.0121779 0.120603 2.294
0.0184999 0.120813 2.298
0.024887 0.121233 2.306
0.0313991 0.121968 2.32
0.0379877 0.122703 2.334
0.0445389 0.123122 2.342
0.0516342 0.124751 2.373
0.0688131 0.132791 2.526
0.0761273 0.133472 2.539
0.0827598 0.132944 2.529
0.0902947 0.133836 2.546
-0.341221 0.106802 2.148
-0.333807 0.106312 2.138
-0.326906 0.105972 2.131
-0.322001 0.106277 2.137
-0.315287 0.105986 2.131
-0.30875 0.105745 2.126
-0.304661 0.106348 2.138
-0.300786 0.107052 2.152
-0.296422 0.107606 2.163
-0.290788 0.107712 2.165
-0.285931 0.108117 2.173
-0.281288 0.108621 2.183
-0.277977 0.109673 2.204
-0.27529 0.111023 2.231
-0.264182 0.116921 2.349
-0.255787 0.116031 2.331
-0.247276 0.115042 2.311
-0.239603 0.114401 2.298
-0.232304 0.113909 2.288
-0.225356 0.113566 2.281
-0.219022 0.113521 2.28
-0.211946 0.113079 2.271
-0.205552 0.112984 2.269
-0.198729 0.112641 2.262
-0.192028 0.112347 2.256
-0.18536 0.112053 2.25
-0.178644 0.111708 2.243
-0.172505 0.111713 2.243
-0.16629 0.111667 2.242
-0.16008 0.111622 2.241
-0.153875 0.111576 2.24
-0.147675 0.11153 2.239
-0.141163 0.111235 2.233
-0.134926 0.111138 2.231
-0.128699 0.111042 2.229
-0.122868 0.111294 2.234
-0.1168 0.111347 2.235
-0.110626 0.1113 2.234
-0.104739 0.111552 2.239
-0.098735 0.111704 2.242
-0.0923841 0.111458 2.237
-0.0859446 0.111061 2.229
-0.0796919 0.110864 2.225
-0.0738907 0.111315 2.234
-0.0679793 0.111665 2.241
-0.0620291 0.112016 2.248
-0.0558166 0.111918 2.246
-0.0497033 0.112019 2.248
-0.0435982 0.112169 2.251
-0.0374599 0.11227 2.253
-0.0313659 0.11257 2.259
-0.0252055 0.11272 2.262
-0.0190873 0.113219 2.272
-0.0128859 0.113469 2.277
-0.0066483 0.113569 2.279
-0.000399333 0.113569 2.279
0.00586247 0.113818 2.284
0.0121782 0.114316 2.294
0.0185246 0.114664 2.301
0.0249632 0.115262 2.313
0.0314946 0.115959 2.327
0.0380864 0.116606 2.34
0.0446542 0.117003 2.348
0.051505 0.117949 2.367
0.0603954 0.122831 2.465
0.0688422 0.125918 2.527
0.0761893 0.126614 2.541
0.0827947 0.126064 2.53
0.0895523 0.125813 2.525
-0.340275 0.100646 2.142
-0.33397 0.100512 2.139
-0.327527 0.100331 2.135
-0.320049 0.0998208 2.124
-0.313518 0.0995926 2.119
-0.30745 0.0995052 2.117
-0.302388 0.0997468 2.122
-0.298975 0.100552 2.139
-0.294647 0.101076 2.15
-0.288645 0.101035 2.149
-0.283833 0.101418 2.157
-0.279362 0.101941 2.168
-0.276217 0.102982 2.19
-0.274185 0.104493 2.222
-0.2661 0.11129 2.366
-0.256781 0.110073 2.34
-0.248138 0.109091 2.319
-0.239921 0.10825 2.301
-0.232716 0.107832 2.292
-0.225263 0.107272 2.28
-0.218355 0.106948 2.273
-0.211391 0.106577 2.265
-0.205285 0.106629 2.266
-0.198997 0.106586 2.265
-0.192459 0.106403 2.261
-0.185941 0.106219 2.257
-0.179366 0.105988 2.252
-0.172663 0.105663 2.245
-0.166146 0.105431 2.24
-0.160013 0.105435 2.24
-0.153741 0.105345 2.238
-0.147744 0.105443 2.24
-0.14142 0.105305 2.237
-0.135171 0.105214 2.235
-0.128934 0.105123 2.233
-0.122926 0.10522 2.235
-0.116907 0.105317 2.237
-0.110778 0.10532 2.237
-0.104648 0.105323 2.237
-0.0985172 0.105325 2.237
-0.0923451 0.10528 2.236
-0.0863324 0.105424 2.239
-0.0802312 0.105473 2.24
-0.0742234 0.105663 2.244
-0.0681023 0.105712 2.245
-0.0619755 0.105761 2.246
-0.0558926 0.105904 2.249
-0.0498151 0.106093 2.253
-0.0436574 0.106141 2.254
-0.0375772 0.106425 2.26
-0.0313806 0.106426 2.26
-0.0252284 0.106615 2.264
-0.0190038 0.106521 2.262
-0.0128523 0.106945 2.271
-0.0066543 0.107417 2.281
-0.000401621 0.107935 2.292
0.00589342 0.108123 2.296
0.0122104 0.108311 2.3
0.0185895 0.108735 2.309
0.0250286 0.109205 2.319
0.0315225 0.109675 2.329
0.0380711 0.110145 2.339
0.0445793 0.11038 2.344
0.0514411 0.11132 2.364
0.0593189 0.114003 2.421
0.0685715 0.118522 2.517
0.0761013 0.119509 2.538
0.0829605 0.119366 2.535
0.0902639 0.119835 2.545
-0.349188 0.0956213 2.161
-0.3406 0.0948758 2.144
-0.335694 0.0951481 2.15
-0.327687 0.0945351 2.136
-0.320809 0.0942317 2.129
-0.312341 0.0934414 2.111
-0.306004 0.0932706 2.107
-0.301397 0.0936309 2.115
-0.297025 0.0940797 2.125
-0.29342 0.0947942 2.141
-0.288249 0.0950216 2.146
-0.283707 0.0954703 2.156
-0.278852 0.0958304 2.164
-0.27534 0.0966777 2.183
-0.273451 0.098145 2.216
-0.256786 0.103666 2.34
-0.248464 0.102874 2.322
-0.240135 0.102037 2.303
-0.232721 0.101555 2.292
-0.225663 0.101206 2.284
-0.218552 0.100812 2.275
-0.211582 0.100462 2.267
-0.205108 0.100334 2.264
-0.198738 0.100249 2.262
-0.192548 0.100254 2.262
-0.186522 0.100347 2.264
-0.179927 0.100129 2.259
-0.173051 0.0997342 2.25
-0.166298 0.0993833 2.242
-0.160159 0.099387 2.242
-0.153745 0.0992132 2.238
-0.147484 0.099128 2.236
-0.14117 0.0989982 2.233
-0.134993 0.0989571 2.232
-0.128879 0.09896 2.232
-0.122929 0.0990959 2.235
-0.116962 0.0992317 2.238
-0.11078 0.09919 2.237
-0.104557 0.0991037 2.235
-0.0982553 0.0989287 2.231
-0.0922647 0.0990639 2.234
-0.0863344 0.0992877 2.239
-0.080448 0.0996 2.246
-0.0742582 0.0995575 2.245
-0.0681949 0.0996922 2.248
-0.0620597 0.099738 2.249
-0.0559685 0.0998724 2.252
-0.0499048 0.100095 2.257
-0.0437166 0.100096 2.257
-0.0375282 0.100097 2.257
-0.0313119 0.10001 2.255
-0.0251733 0.100188 2.259
-0.0189874 0.100232 2.26
-0.0128413 0.100632 2.269
-0.00664863 0.101076 2.279
-0.00040128 0.101564 2.29
0.00588843 0.101741 2.294
0.0122107 0.102007 2.3
0.018606 0.102494 2.311
0.0250724 0.103026 2.323
0.0315233 0.103292 2.329
0.0380232 0.103601 2.336
0.0445803 0.103955 2.344
0.051377 0.104708 2.361
0.0588547 0.106525 2.402
0.0679737 0.110648 2.495
0.0759232 0.112287 2.532
0.0833552 0.11295 2.547
0.0907272 0.113436 2.558
-0.350003 0.0899186 2.166
-0.339494 0.088721 2.137
-0.331953 0.0882705 2.126
-0.324932 0.0879445 2.118
-0.31735 0.0874523 2.106
-0.310128 0.0870429 2.096
-0.305138 0.0872564 2.101
-0.301118 0.0877606 2.113
-0.298009 0.0885555 2.132
-0.292329 0.0886028 2.133
-0.287717 0.0889823 2.142
-0.283713 0.0895694 2.156
-0.278858 0.0899073 2.164
-0.274463 0.0904113 2.176
-0.257889 0.0976742 2.35
-0.249432 0.0968896 2.331
-0.241287 0.0961879 2.314
-0.233437 0.0955693 2.299
-0.226162 0.0951583 2.289
-0.218748 0.094664 2.277
-0.21196 0.094419 2.271
-0.204932 0.0940491 2.262
-0.198391 0.093887 2.258
-0.192212 0.093891 2.258
-0.186279 0.0940198 2.261
-0.18017 0.0940652 2.262
-0.17367 0.0939026 2.258
-0.167266 0.0937814 2.255
-0.16102 0.0937433 2.254
-0.154161 0.0933307 2.244
-0.147685 0.0931259 2.239
-0.141173 0.0928795 2.233
-0.135299 0.0930488 2.237
-0.129286 0.0931348 2.239
-0.123262 0.0932207 2.241
-0.117226 0.0933065 2.243
-0.110931 0.0931841 2.24
-0.104699 0.0931033 2.238
-0.0984777 0.0930222 2.236
-0.0926798 0.0933571 2.244
-0.0866449 0.0934839 2.247
-0.0806647 0.0936937 2.252
-0.0742599 0.0934042 2.245
-0.0681358 0.0934473 2.246
-0.0620887 0.0936152 2.25
-0.0560692 0.0938661 2.256
-0.0499501 0.0939921 2.259
-0.0437176 0.0939099 2.257
-0.0375789 0.0940356 2.26
-0.031382 0.0940363 2.26
-0.0252073 0.0941202 2.262
-0.0190215 0.0942039 2.264
-0.0128755 0.0946619 2.275
-0.00666045 0.094995 2.283
-0.000401465 0.095328 2.291
0.00588342 0.0953695 2.292
0.0122003 0.095619 2.298
0.0185903 0.0960764 2.309
0.025073 0.0966584 2.323
0.0314834 0.0967826 2.326
0.0379264 0.0969483 2.33
0.0445053 0.0973635 2.34
0.0514217 0.0983194 2.363
0.0589541 0.100107 2.406
0.0676483 0.10331 2.483
0.075715 0.105056 2.525
0.0834225 0.106052 2.549
0.0910129 0.106758 2.566
-0.345323 0.0828696 2.137
-0.336164 0.0820611 2.116
-0.329305 0.0817955 2.109
-0.322023 0.0814133 2.099
-0.315698 0.0812638 2.095
-0.30969 0.0811917 2.093
-0.304853 0.0814299 2.099
-0.301266 0.0820173 2.114
-0.296337 0.0822555 2.12
-0.290553 0.0822608 2.12
-0.286111 0.082654 2.13
-0.283192 0.083513 2.152
-0.27925 0.0841002 2.167
-0.275477 0.0847651 2.184
-0.257894 0.091239 2.35
-0.250079 0.0907391 2.337
-0.242022 0.0901225 2.321
-0.234254 0.0895835 2.307
-0.226858 0.0891607 2.296
-0.219521 0.0887379 2.285
-0.212711 0.088509 2.279
-0.205842 0.0882412 2.272
-0.199098 0.0880121 2.266
-0.192556 0.0878606 2.262
-0.186365 0.0878643 2.262
-0.180333 0.0879456 2.264
-0.173828 0.0877936 2.26
-0.16764 0.087797 2.26
-0.161166 0.0876449 2.256
-0.154164 0.0871818 2.244
-0.14749 0.086874 2.236
-0.141239 0.0867991 2.234
-0.135422 0.0869962 2.239
-0.129519 0.0871543 2.243
-0.123484 0.0872345 2.245
-0.117228 0.0871592 2.243
-0.110983 0.0870838 2.241
-0.104842 0.087086 2.241
-0.0987 0.087088 2.241
-0.092847 0.087362 2.248
-0.0867623 0.0874415 2.25
-0.0807022 0.0875598 2.253
-0.0742614 0.0872505 2.245
-0.0681372 0.0872908 2.246
-0.0620624 0.0874087 2.249
-0.0559461 0.0874876 2.251
-0.0497743 0.0874887 2.251
-0.0435829 0.0874508 2.25
-0.03748 0.0876071 2.254
-0.0313966 0.0878799 2.261
-0.0251967 0.0878804 2.261
-0.0190723 0.0882307 2.27
-0.0128645 0.0883476 2.273
-0.006646 0.0885422 2.278
-0.000399545 0.08862 2.28
0.00586558 0.0888143 2.285
0.012174 0.089125 2.293
0.0185666 0.08963 2.306
0.0250303 0.0901348 2.319
0.0314705 0.0903675 2.325
0.0379109 0.0905222 2.329
0.0444872 0.0909101 2.339
0.0513575 0.0917253 2.36
0.0586613 0.0930456 2.394
0.0673773 0.0961148 2.473
0.0757166 0.0981343 2.525
0.0834897 0.0991432 2.551
0.0911567 0.0998798 2.57
-0.343713 0.0766639 2.127
-0.334105 0.0758043 2.103
-0.327281 0.0755573 2.096
