# .PCD v.7 - Point Cloud Data file format
VERSION .7
FIELDS x y z
SIZE 4 4 4
TYPE F F F
COUNT 1 1 1
WIDTH 1843
HEIGHT 1
VIEWPOINT 0 0 0 1 0 0 0
POINTS 1843
DATA ascii
-0.137243 -0.328591 2.273
-0.130969 -0.328455 2.272
-0.124864 -0.328753 2.274
-0.119061 -0.329918 2.282
-0.113016 -0.330503 2.286
-0.106575 -0.329932 2.282
-0.1002 -0.329506 2.279
-0.0942937 -0.330669 2.287
-0.0883052 -0.331687 2.294
-0.0822423 -0.33256 2.3
-0.0762784 -0.334011 2.31
-0.0704714 -0.336474 2.327
-0.0644884 -0.338503 2.341
-0.0584285 -0.340532 2.355
-0.0135764 -0.34749 2.403
-0.00694595 -0.344887 2.385
-0.000414413 -0.342574 2.369
0.00606028 -0.341995 2.365
0.0125449 -0.342284 2.367
0.0190484 -0.342717 2.37
0.0254389 -0.341414 2.361
0.0319693 -0.342135 2.366
0.0384294 -0.341988 2.365
0.0446941 -0.340394 2.354
0.0508983 -0.338801 2.343
0.0572134 -0.338219 2.339
0.0636967 -0.338648 2.342
0.0698969 -0.337632 2.335
0.0763525 -0.337916 2.337
0.0828896 -0.338489 2.341
0.089639 -0.339785 2.35
0.0962329 -0.340357 2.354
0.102936 -0.341218 2.36
0.109624 -0.341934 2.365
0.116733 -0.343806 2.378
-0.196725 -0.340876 2.315
-0.189166 -0.33868 2.3
-0.182324 -0.337661 2.293
-0.175673 -0.336936 2.288
-0.169493 -0.337095 2.289
-0.163021 -0.336664 2.286
-0.156223 -0.335496 2.278
-0.149533 -0.334476 2.271
-0.143134 -0.334043 2.268
-0.137355 -0.335084 2.275
-0.131191 -0.33524 2.276
-0.12524 -0.335985 2.281
-0.119157 -0.336435 2.284
-0.112959 -0.33659 2.285
-0.106428 -0.335714 2.279
-0.100061 -0.335279 2.276
-0.0941637 -0.336464 2.284
-0.0881838 -0.337501 2.291
-0.0823083 -0.339127 2.302
-0.0764053 -0.340901 2.314
-0.0706483 -0.343705 2.333
-0.0648421 -0.346803 2.354
-0.0135472 -0.353307 2.398
-0.00693092 -0.350656 2.38
-0.000413335 -0.348151 2.363
0.00605731 -0.348298 2.364
0.0125387 -0.348592 2.366
0.0190069 -0.348444 2.365
0.0253726 -0.346969 2.355
0.0318455 -0.347262 2.357
0.0382481 -0.346817 2.354
0.0445961 -0.346078 2.349
0.0507863 -0.344454 2.338
0.0571851 -0.34445 2.338
0.063502 -0.344004 2.335
0.0696228 -0.342674 2.326
0.076086 -0.343111 2.329
0.0825654 -0.343548 2.332
0.0894423 -0.345457 2.345
0.0961447 -0.346482 2.352
0.102929 -0.347654 2.36
0.10971 -0.348678 2.367
-0.197137 -0.347936 2.32
-0.189236 -0.345099 2.301
-0.181914 -0.343162 2.288
-0.175277 -0.342424 2.283
-0.169259 -0.342885 2.286
-0.163224 -0.343346 2.289
-0.156418 -0.342157 2.281
-0.149984 -0.341717 2.278
-0.14344 -0.340977 2.273
-0.137647 -0.342036 2.28
-0.131701 -0.342796 2.285
-0.125726 -0.343554 2.29
-0.119202 -0.342813 2.285
-0.112655 -0.34192 2.279
-0.106094 -0.340877 2.272
-0.100054 -0.341485 2.276
-0.0940337 -0.342241 2.281
-0.0881394 -0.343598 2.29
-0.082124 -0.344654 2.297
-0.076301 -0.34676 2.311
-0.0706738 -0.350216 2.334
-0.0649203 -0.353672 2.357
-0.0136875 -0.363598 2.423
-0.00697122 -0.359247 2.394
-0.000415581 -0.356546 2.376
0.00605689 -0.354745 2.364
0.0125114 -0.354294 2.361
0.0189493 -0.353843 2.358
0.0253277 -0.352791 2.351
0.0318028 -0.353239 2.354
0.0381642 -0.352486 2.349
0.0444792 -0.351583 2.343
0.0507828 -0.35083 2.338
0.0571811 -0.350826 2.338
0.0634705 -0.350222 2.334
0.0697976 -0.349917 2.332
0.0760155 -0.349162 2.327
0.0825244 -0.349756 2.331
0.0893599 -0.351551 2.343
0.0961382 -0.352895 2.352
0.103009 -0.354389 2.362
0.109888 -0.355732 2.371
-0.196445 -0.353037 2.312
-0.189388 -0.351676 2.303
-0.181822 -0.349245 2.287
-0.175496 -0.349104 2.286
-0.169174 -0.348963 2.285
-0.162857 -0.348821 2.284
-0.155996 -0.347458 2.275
-0.149448 -0.346704 2.27
-0.143683 -0.347784 2.277
-0.137638 -0.348251 2.28
-0.131634 -0.348872 2.284
-0.125607 -0.349491 2.288
-0.118776 -0.347819 2.277
-0.112351 -0.347216 2.273
-0.105806 -0.346155 2.266
-0.100003 -0.347536 2.275
-0.0940272 -0.34846 2.281
-0.0882103 -0.350146 2.292
-0.0822613 -0.351527 2.301
-0.0763288 -0.353213 2.312
-0.0705175 -0.355816 2.329
-0.0647231 -0.359029 2.35
-0.01376 -0.37219 2.436
-0.00699985 -0.367302 2.404
-0.000417126 -0.364399 2.385
0.00607441 -0.36226 2.371
0.012484 -0.359967 2.356
0.0188596 -0.358591 2.347
0.0253152 -0.359048 2.35
0.0317331 -0.358893 2.349
0.0380479 -0.357821 2.342
0.0444191 -0.357513 2.34
0.0508444 -0.357662 2.341
0.057275 -0.357811 2.342
0.063738 -0.358113 2.344
0.0700622 -0.35765 2.341
0.0764349 -0.357492 2.34
0.0829435 -0.357944 2.343
0.0895445 -0.358702 2.348
0.0961725 -0.35946 2.353
0.102871 -0.36037 2.359
0.10988 -0.362195 2.371
-0.196601 -0.359648 2.314
-0.189539 -0.358262 2.305
-0.182208 -0.356254 2.292
-0.175714 -0.3558 2.289
-0.169385 -0.355656 2.288
-0.162917 -0.355201 2.285
-0.155917 -0.353502 2.274
-0.149372 -0.352735 2.269
-0.143421 -0.353367 2.273
-0.137508 -0.354154 2.278
-0.131337 -0.354319 2.279
-0.125269 -0.354794 2.282
-0.118611 -0.353559 2.274
-0.112343 -0.353411 2.273
-0.105892 -0.352642 2.268
-0.10004 -0.353893 2.276
-0.0940619 -0.354832 2.282
-0.0882041 -0.356394 2.292
-0.0822913 -0.357955 2.302
-0.0763235 -0.359515 2.312
-0.0706337 -0.362786 2.333
-0.0647185 -0.365434 2.35
-0.0137647 -0.378986 2.437
-0.00702847 -0.37541 2.414
-0.000418496 -0.372144 2.393
0.00608679 -0.3695 2.376
0.0124831 -0.366389 2.356
0.0188824 -0.365455 2.35
0.0253673 -0.366231 2.355
0.0318119 -0.366229 2.355
0.0382564 -0.366227 2.355
0.0445679 -0.365135 2.348
0.0511449 -0.366221 2.355
0.0575645 -0.366061 2.354
0.0640055 -0.366057 2.354
0.0703565 -0.365586 2.351
0.0766255 -0.364803 2.346
0.0833271 -0.366041 2.354
0.0898052 -0.366191 2.355
0.0963702 -0.366651 2.358
0.103038 -0.367421 2.363
0.110429 -0.370523 2.383
-0.196843 -0.366426 2.317
-0.189855 -0.365174 2.309
-0.182593 -0.363289 2.297
-0.175856 -0.362353 2.291
-0.169373 -0.36189 2.288
-0.162977 -0.361585 2.286
-0.156592 -0.36128 2.284
-0.149625 -0.359551 2.273
-0.143726 -0.360352 2.278
-0.137317 -0.359887 2.275
-0.131097 -0.359896 2.275
-0.124712 -0.359431 2.272
-0.118395 -0.359123 2.27
-0.112384 -0.359764 2.274
-0.106072 -0.359455 2.272
-0.100121 -0.360412 2.278
-0.0942201 -0.361684 2.286
-0.0883518 -0.363273 2.296
-0.0825 -0.365177 2.308
-0.0764171 -0.366291 2.315
-0.0706589 -0.369302 2.334
-0.013854 -0.38816 2.453
-0.00701341 -0.381198 2.409
-0.000416717 -0.377084 2.383
0.00607611 -0.375343 2.372
0.0125087 -0.373602 2.361
0.0189453 -0.373126 2.358
0.0253655 -0.37265 2.355
0.0318367 -0.372964 2.357
0.0383674 -0.373753 2.362
0.0447545 -0.373117 2.358
0.0513367 -0.374063 2.364
0.0576826 -0.373268 2.359
0.0641913 -0.37358 2.361
0.0703815 -0.372151 2.352
0.0767834 -0.371988 2.351
0.0833566 -0.372615 2.355
0.0901039 -0.373874 2.363
0.0965268 -0.373709 2.362
0.10338 -0.375126 2.371
0.111487 -0.380656 2.406
-0.197169 -0.373381 2.321
-0.189924 -0.371625 2.31
-0.182898 -0.37019 2.301
-0.175997 -0.368915 2.293
-0.169583 -0.368605 2.291
-0.163465 -0.368939 2.293
-0.157061 -0.368628 2.291
-0.150536 -0.367996 2.287
-0.143716 -0.366558 2.278
-0.137368 -0.366246 2.276
-0.1308 -0.36529 2.27
-0.124758 -0.365782 2.273
-0.118595 -0.365951 2.274
-0.112623 -0.366764 2.279
-0.106204 -0.366128 2.275
-0.100158 -0.366779 2.279
-0.0942134 -0.367913 2.286
-0.0884994 -0.370172 2.3
-0.0825298 -0.371627 2.309
-0.0764116 -0.372598 2.315
-0.0706236 -0.375501 2.333
-0.0137966 -0.393234 2.443
-0.00702164 -0.388245 2.412
-0.000416163 -0.383094 2.38
0.00607567 -0.381806 2.372
0.0125555 -0.381484 2.37
0.0189761 -0.380195 2.362
0.0254283 -0.380032 2.361
0.0318479 -0.379547 2.358
0.0384621 -0.381155 2.368
0.0449221 -0.380991 2.367
0.0513548 -0.380665 2.365
0.0576296 -0.379374 2.357
0.0640236 -0.379047 2.355
0.070556 -0.379525 2.358
0.0769086 -0.379037 2.355
0.0834922 -0.379675 2.359
0.0901356 -0.380474 2.364
0.0967652 -0.381111 2.368
0.103547 -0.38223 2.375
-0.196816 -0.379048 2.317
-0.189747 -0.377589 2.308
-0.182885 -0.376457 2.301
-0.175985 -0.37516 2.293
-0.169423 -0.374518 2.289
-0.163382 -0.375021 2.292
-0.157118 -0.375032 2.292
-0.150459 -0.374061 2.286
-0.143706 -0.372762 2.278
-0.137056 -0.371627 2.271
-0.130733 -0.371309 2.269
-0.124639 -0.371646 2.271
-0.118743 -0.372636 2.277
-0.112912 -0.373954 2.285
-0.10643 -0.373144 2.28
-0.100327 -0.373642 2.283
-0.0942479 -0.374304 2.287
-0.0884931 -0.376438 2.3
-0.0823809 -0.377262 2.305
-0.0764721 -0.379232 2.317
-0.0704974 -0.381202 2.329
-0.0137335 -0.398089 2.432
-0.00699202 -0.393179 2.402
-0.000417706 -0.391052 2.389
0.00608291 -0.38876 2.375
0.0125811 -0.388759 2.375
0.0190229 -0.387612 2.368
0.0254695 -0.387119 2.365
0.0318185 -0.385644 2.356
0.0383131 -0.386133 2.359
0.0449188 -0.387439 2.367
0.0513945 -0.387435 2.367
0.0577477 -0.386613 2.362
0.0640461 -0.385627 2.356
0.0705509 -0.385949 2.358
0.0772296 -0.387089 2.365
0.083557 -0.386429 2.361
0.0902435 -0.387405 2.367
0.0968399 -0.387889 2.37
0.103888 -0.390009 2.383
-0.196547 -0.384858 2.314
-0.189076 -0.382543 2.3
-0.182237 -0.381392 2.293
-0.175742 -0.380905 2.29
-0.169115 -0.380086 2.285
-0.162872 -0.380098 2.285
-0.156353 -0.379444 2.281
-0.150054 -0.379288 2.28
-0.143317 -0.377968 2.272
-0.137107 -0.377978 2.272
-0.130839 -0.377821 2.271
-0.124959 -0.378829 2.277
-0.118786 -0.379004 2.278
-0.112657 -0.379345 2.28
-0.106376 -0.379187 2.279
-0.100407 -0.380193 2.285
-0.0944471 -0.381364 2.292
-0.0886405 -0.383368 2.304
-0.0824821 -0.38404 2.308
-0.0766316 -0.386375 2.322
-0.0709463 -0.390041 2.344
-0.0137833 -0.406211 2.441
-0.00703226 -0.402052 2.416
-0.000419948 -0.399722 2.402
0.00610039 -0.396394 2.382
0.0125801 -0.395228 2.375
0.0190215 -0.394062 2.368
0.0255322 -0.39456 2.371
0.0318432 -0.392394 2.358
0.0381641 -0.39106 2.35
0.0447448 -0.392388 2.358
0.0511736 -0.392219 2.357
0.0576945 -0.392714 2.36
0.0639871 -0.391711 2.354
0.0706055 -0.392704 2.36
0.0771586 -0.393198 2.363
0.083834 -0.394191 2.369
0.0903132 -0.394184 2.369
0.097078 -0.395342 2.376
0.104055 -0.397165 2.387
-0.195854 -0.389805 2.306
-0.18824 -0.387114 2.29
-0.181191 -0.385437 2.28
-0.175192 -0.385956 2.283
-0.168733 -0.385462 2.28
-0.162717 -0.385981 2.283
-0.156136 -0.385147 2.278
-0.149911 -0.385158 2.278
-0.143244 -0.383985 2.271
-0.137157 -0.384333 2.273
-0.13106 -0.384681 2.275
-0.12506 -0.385367 2.279
-0.118778 -0.385207 2.278
-0.112599 -0.385384 2.279
-0.106555 -0.386069 2.283
-0.100664 -0.387429 2.291
-0.0946874 -0.38862 2.298
-0.0887109 -0.38998 2.306
-0.0826547 -0.39117 2.313
-0.0769229 -0.39422 2.331
-0.0711226 -0.397439 2.35
-0.0138105 -0.413704 2.446
-0.00706957 -0.41083 2.429
-0.000421315 -0.407617 2.41
0.00611531 -0.403895 2.388
0.012558 -0.401019 2.371
0.0189639 -0.399327 2.361
0.0254334 -0.399494 2.362
0.0318679 -0.399154 2.36
0.03821 -0.397967 2.353
0.0447225 -0.398641 2.357
0.0511481 -0.398468 2.356
0.0577147 -0.39931 2.361
0.0641998 -0.399474 2.362
0.0708396 -0.400484 2.368
0.0773488 -0.400648 2.369
0.0837924 -0.400473 2.368
0.0904971 -0.401481 2.374
0.0972343 -0.402489 2.38
0.104527 -0.405525 2.398
-0.19584 -0.396082 2.306
-0.188227 -0.393347 2.29
-0.181495 -0.39233 2.284
-0.175487 -0.392858 2.287
-0.169239 -0.39287 2.287
-0.163062 -0.393054 2.288
-0.156331 -0.391863 2.281
-0.149769 -0.391016 2.276
-0.14317 -0.389996 2.27
-0.137208 -0.390693 2.274
-0.131338 -0.391734 2.28
-0.125216 -0.392087 2.282
-0.118873 -0.391752 2.28
-0.112344 -0.39073 2.274
-0.106453 -0.391941 2.281
-0.100568 -0.393323 2.289
-0.0948863 -0.395736 2.303
-0.0888582 -0.396946 2.31
-0.0828987 -0.398671 2.32
-0.0772142 -0.402113 2.34
-0.0137417 -0.418302 2.434
-0.00707195 -0.417615 2.43
-0.000423906 -0.416756 2.425
0.00615582 -0.413147 2.404
0.0126047 -0.409022 2.38
0.0190026 -0.406615 2.366
0.0254638 -0.406441 2.365
0.031933 -0.406439 2.365
0.0383371 -0.405749 2.361
0.0447381 -0.40523 2.358
0.0511008 -0.404539 2.354
0.0576615 -0.405394 2.359
0.0644124 -0.40728 2.37
0.0710437 -0.408134 2.375
0.0773757 -0.407269 2.37
0.0837154 -0.406576 2.366
0.0907191 -0.408975 2.38
0.0981667 -0.41292 2.403
-0.195571 -0.401834 2.303
-0.188213 -0.399579 2.29
-0.181403 -0.398371 2.283
-0.175167 -0.398384 2.283
-0.168931 -0.398397 2.283
-0.162694 -0.398409 2.283
-0.156319 -0.398071 2.281
-0.149955 -0.397734 2.279
-0.143412 -0.396872 2.274
-0.137258 -0.397057 2.275
-0.131271 -0.397765 2.279
-0.125097 -0.397949 2.28
-0.118864 -0.397958 2.28
-0.112582 -0.397792 2.279
-0.106585 -0.398673 2.284
-0.100605 -0.399728 2.29
-0.0945497 -0.400608 2.295
-0.0885438 -0.401837 2.302
-0.0825709 -0.403415 2.311
-0.0770764 -0.407785 2.336
-0.0136052 -0.420738 2.41
-0.0070365 -0.422135 2.418
-0.000422475 -0.421961 2.417
0.00616303 -0.420215 2.407
0.012625 -0.416199 2.384
0.0190574 -0.414277 2.373
0.0255157 -0.413752 2.37
0.0319171 -0.412702 2.364
0.0384153 -0.413049 2.366
0.0447347 -0.411649 2.358
0.0512706 -0.412344 2.362
0.0576327 -0.411641 2.358
0.0644347 -0.413906 2.371
0.0708589 -0.413552 2.369
0.077174 -0.412673 2.364
0.0835676 -0.412318 2.362
0.0913602 -0.418421 2.397
0.0994665 -0.425047 2.435
-0.196746 -0.41058 2.317
-0.189104 -0.407759 2.301
-0.182105 -0.406178 2.292
-0.175308 -0.404951 2.285
-0.168992 -0.404786 2.284
-0.162468 -0.404089 2.28
-0.156376 -0.404456 2.282
-0.149812 -0.403581 2.277
-0.143528 -0.403415 2.276
-0.137308 -0.403425 2.276
-0.131491 -0.404676 2.283
-0.125087 -0.404154 2.28
-0.11896 -0.404517 2.282
-0.112524 -0.403817 2.278
-0.106624 -0.405066 2.285
-0.100553 -0.405783 2.289
-0.0946249 -0.407209 2.297
-0.0885756 -0.408279 2.303
-0.082386 -0.408818 2.306
-0.0765427 -0.411306 2.32
-0.0204888 -0.433502 2.445
-0.0135872 -0.426765 2.407
-0.00702141 -0.42783 2.413
-0.000422618 -0.428717 2.418
0.00616512 -0.426944 2.408
0.0126346 -0.423042 2.386
0.01908 -0.421268 2.376
0.0255676 -0.421089 2.375
0.0319416 -0.419491 2.366
0.0384124 -0.419488 2.366
0.0447882 -0.418599 2.361
0.0513536 -0.419481 2.366
0.0576528 -0.418236 2.359
0.0641853 -0.418763 2.362
0.0706143 -0.418581 2.361
0.0772008 -0.419285 2.365
0.084092 -0.421406 2.377
0.0914677 -0.425477 2.4
0.0990505 -0.429901 2.425
-0.197071 -0.417603 2.321
-0.188761 -0.413299 2.297
-0.181456 -0.410974 2.284
-0.174834 -0.410087 2.279
-0.168684 -0.41028 2.28
-0.162456 -0.410292 2.28
-0.15609 -0.409944 2.278
-0.149735 -0.409596 2.276
-0.143643 -0.409967 2.278
-0.137539 -0.410337 2.28
-0.131481 -0.410887 2.283
-0.125078 -0.410357 2.28
-0.118794 -0.410186 2.279
-0.112417 -0.409655 2.276
-0.106663 -0.411464 2.286
-0.100633 -0.412371 2.291
-0.0946177 -0.413459 2.297
-0.0886073 -0.414726 2.304
-0.0825226 -0.415813 2.31
-0.0765038 -0.417439 2.319
-0.0136764 -0.436196 2.423
-0.00701214 -0.433856 2.41
-0.000420663 -0.433316 2.407
0.00614417 -0.432056 2.4
0.0125966 -0.428275 2.379
0.0190063 -0.426113 2.367
0.0254472 -0.425571 2.364
0.0318987 -0.425389 2.363
0.0384419 -0.426287 2.368
0.0450124 -0.427183 2.373
0.0515883 -0.4279 2.377
0.0577705 -0.425555 2.364
0.0640988 -0.424651 2.359
0.0706986 -0.425546 2.364
0.0776845 -0.42842 2.38
0.0846162 -0.430574 2.392
0.0916131 -0.432727 2.404
0.0990021 -0.43632 2.424
-0.189158 -0.42046 2.302
-0.181839 -0.418099 2.289
-0.175205 -0.417199 2.284
-0.169337 -0.418126 2.289
-0.162942 -0.417773 2.287
-0.156353 -0.416871 2.282
-0.149658 -0.415604 2.275
-0.143443 -0.415615 2.275
-0.137529 -0.416539 2.28
-0.131356 -0.416732 2.281
-0.125233 -0.417108 2.283
-0.11889 -0.416752 2.281
-0.112557 -0.416395 2.279
-0.106654 -0.417682 2.286
-0.100933 -0.419883 2.298
-0.0949811 -0.421352 2.306
-0.0889466 -0.422638 2.313
-0.0830164 -0.424655 2.324
-0.0772236 -0.427768 2.341
-0.0137713 -0.445894 2.44
-0.00706687 -0.443885 2.429
-0.000423776 -0.443154 2.425
0.00617697 -0.440961 2.413
0.0126432 -0.436392 2.388
0.0190369 -0.433284 2.371
0.0254237 -0.431637 2.362
0.0319502 -0.432549 2.367
0.0384714 -0.433094 2.37
0.0451986 -0.435467 2.383
0.051606 -0.434549 2.378
0.0579127 -0.433083 2.37
0.0642569 -0.432165 2.365
0.0710819 -0.434352 2.377
0.0779723 -0.436539 2.389
0.0850341 -0.439274 2.404
0.0919871 -0.441094 2.414
0.0990762 -0.44328 2.426
-0.18939 -0.427276 2.305
-0.181905 -0.42451 2.29
-0.175038 -0.42304 2.282
-0.168954 -0.423424 2.284
-0.162716 -0.423436 2.284
-0.156135 -0.422521 2.279
-0.149581 -0.421606 2.274
-0.143369 -0.421617 2.274
-0.137277 -0.421999 2.276
-0.131116 -0.422194 2.277
-0.125113 -0.422946 2.281
-0.11888 -0.422955 2.281
-0.112647 -0.422964 2.281
-0.10674 -0.424271 2.288
-0.100925 -0.426133 2.298
-0.095015 -0.42781 2.307
-0.0889012 -0.428744 2.312
-0.0833314 -0.432645 2.333
-0.0138888 -0.456426 2.461
-0.00710705 -0.453089 2.443
-0.000424092 -0.450121 2.427
0.00618416 -0.448081 2.416
0.0127217 -0.445669 2.403
0.0192201 -0.443999 2.394
0.0256047 -0.441215 2.379
0.0320827 -0.440842 2.377
0.0385333 -0.440283 2.374
0.045195 -0.441949 2.383
0.0515803 -0.440832 2.377
0.0580303 -0.440457 2.375
0.0645507 -0.440638 2.376
0.0713455 -0.442487 2.386
0.078162 -0.44415 2.395
0.0849921 -0.445627 2.403
0.0918276 -0.446918 2.41
0.0993136 -0.450991 2.432
-0.197961 -0.438607 2.332
-0.190198 -0.435424 2.315
-0.182448 -0.432053 2.297
-0.175409 -0.430185 2.287
-0.168942 -0.429634 2.284
-0.162704 -0.429647 2.284
-0.15626 -0.429094 2.281
-0.149504 -0.427601 2.273
-0.143106 -0.427048 2.27
-0.136965 -0.427247 2.271
-0.130875 -0.427634 2.273
-0.125049 -0.42896 2.28
-0.118975 -0.429534 2.283
-0.112934 -0.430296 2.287
-0.106918 -0.431245 2.292
-0.101005 -0.432759 2.3
-0.0950899 -0.43446 2.309
-0.0891634 -0.436348 2.319
-0.083432 -0.439554 2.336
-0.0139949 -0.466694 2.48
-0.00714139 -0.461991 2.455
-0.000425981 -0.458792 2.438
0.00620671 -0.456345 2.425
0.0128106 -0.455404 2.42
0.019347 -0.45352 2.41
0.025861 -0.452201 2.403
0.0322556 -0.449753 2.39
0.0387088 -0.448809 2.385
0.0452484 -0.448994 2.386
0.051598 -0.447485 2.378
0.0580258 -0.446916 2.375
0.0646815 -0.44804 2.381
0.0714595 -0.449728 2.39
0.0781559 -0.450663 2.395
0.0847379 -0.450845 2.396
0.0918204 -0.453472 2.41
0.0988975 -0.455723 2.422
-0.1982 -0.445518 2.335
-0.189937 -0.441145 2.312
-0.182275 -0.437915 2.295
-0.175165 -0.43583 2.284
-0.168707 -0.43527 2.281
-0.162407 -0.435092 2.28
-0.156248 -0.435295 2.281
-0.149624 -0.434162 2.275
-0.143095 -0.433219 2.27
-0.136592 -0.432276 2.265
-0.130693 -0.433241 2.27
-0.124875 -0.434587 2.277
-0.118758 -0.434978 2.279
-0.112777 -0.435941 2.284
-0.106956 -0.437668 2.293
-0.100866 -0.438439 2.297
-0.0950413 -0.440547 2.308
-0.0891949 -0.442844 2.32
-0.0836397 -0.447051 2.342
-0.0140051 -0.473819 2.482
-0.00710883 -0.466566 2.444
-0.000424374 -0.463703 2.429
0.00619598 -0.462175 2.421
0.0128043 -0.461793 2.419
0.0193856 -0.461028 2.415
0.0258266 -0.458162 2.4
0.032253 -0.456251 2.39
0.0387707 -0.456057 2.389
0.0452637 -0.455672 2.387
0.0516807 -0.454714 2.382
0.0580212 -0.453373 2.375
0.0647307 -0.454896 2.383
0.0714239 -0.456035 2.389
0.0781497 -0.457175 2.395
0.0845898 -0.456596 2.392
0.091737 -0.459643 2.408
0.0991755 -0.463644 2.429
-0.197506 -0.450316 2.327
-0.18984 -0.447235 2.311
-0.182023 -0.443572 2.292
-0.175152 -0.442038 2.284
-0.16862 -0.441277 2.28
-0.162323 -0.441096 2.279
-0.156168 -0.441302 2.28
-0.149744 -0.440733 2.277
-0.143336 -0.440164 2.274
-0.136883 -0.4394 2.27
-0.131085 -0.440766 2.277
-0.125139 -0.441744 2.282
-0.119113 -0.442528 2.286
-0.112966 -0.442924 2.288
-0.107134 -0.444675 2.297
-0.101209 -0.446232 2.305
-0.0951161 -0.447208 2.31
-0.0894185 -0.450313 2.326
-0.0840973 -0.455934 2.355
-0.0139814 -0.479792 2.478
-0.00715771 -0.476501 2.461
-0.000426437 -0.472629 2.441
0.00621084 -0.469918 2.427
0.012761 -0.46682 2.411
0.0192396 -0.464108 2.397
0.0257923 -0.464106 2.397
0.0322909 -0.463329 2.393
0.0388649 -0.463713 2.395
0.0452412 -0.461968 2.386
0.0516331 -0.460802 2.38
0.05787 -0.458668 2.369
0.0645082 -0.459825 2.375
0.071209 -0.461174 2.382
0.0780783 -0.463298 2.393
0.0849013 -0.46484 2.401
0.0923773 -0.46948 2.425
-0.188676 -0.450767 2.297
-0.182088 -0.449997 2.293
-0.175062 -0.448048 2.283
-0.168829 -0.448061 2.283
-0.161954 -0.446308 2.274
-0.155813 -0.446516 2.275
-0.149601 -0.446528 2.275
-0.143703 -0.447521 2.28
-0.137355 -0.44714 2.278
-0.131305 -0.447739 2.281
-0.125239 -0.448338 2.284
-0.11926 -0.449329 2.289
-0.113303 -0.450516 2.295
-0.107126 -0.450918 2.297
-0.101289 -0.452889 2.307
-0.0953556 -0.454664 2.316
-0.0899495 -0.459383 2.34
-0.0842334 -0.46312 2.359
-0.00720657 -0.486528 2.478
-0.000426228 -0.479067 2.44
0.00615148 -0.471999 2.404
0.0126753 -0.470231 2.395
0.0191739 -0.469052 2.389
0.0257687 -0.470228 2.395
0.0322613 -0.46944 2.391
0.0387969 -0.469438 2.391
0.0451427 -0.467471 2.381
0.0515639 -0.466682 2.377
0.0579142 -0.465499 2.371
0.0644759 -0.466083 2.374
0.0713229 -0.468434 2.386
0.0782678 -0.47098 2.399
0.085531 -0.4749 2.419
0.093208 -0.48039 2.447
-0.197137 -0.462166 2.323
-0.18899 -0.457804 2.301
-0.182074 -0.456226 2.293
-0.175431 -0.455245 2.288
-0.169185 -0.455259 2.288
-0.162226 -0.453282 2.278
-0.155801 -0.452697 2.275
-0.14972 -0.453107 2.277
-0.144006 -0.454711 2.285
-0.137947 -0.455319 2.288
-0.131755 -0.455529 2.289
-0.125448 -0.45534 2.288
-0.119407 -0.456146 2.292
-0.113442 -0.457349 2.298
-0.10721 -0.457557 2.299
-0.101017 -0.457964 2.301
-0.0955538 -0.461952 2.321
-0.0902882 -0.467532 2.349
-0.00730195 -0.499831 2.511
-0.00042794 -0.487688 2.45
0.00616634 -0.479726 2.41
0.0126584 -0.476142 2.392
0.0192606 -0.477733 2.4
0.0257989 -0.477333 2.398
0.0322722 -0.476137 2.392
0.0387775 -0.475736 2.39
0.0451391 -0.473941 2.381
0.0516031 -0.473539 2.379
0.0579339 -0.472141 2.372
0.0644979 -0.472733 2.375
0.0714965 -0.476112 2.392
0.0784246 -0.478494 2.404
0.0859484 -0.483861 2.431
0.0936195 -0.489228 2.458
-0.198988 -0.472912 2.345
-0.189139 -0.464457 2.303
-0.182139 -0.462657 2.294
-0.175571 -0.461864 2.29
-0.169394 -0.462079 2.291
-0.162285 -0.459672 2.279
-0.155926 -0.459281 2.277
-0.149709 -0.459293 2.277
-0.143743 -0.460111 2.281
-0.137574 -0.460324 2.282
-0.131515 -0.46094 2.285
-0.125329 -0.461152 2.286
-0.119345 -0.462171 2.291
-0.113235 -0.462785 2.294
-0.106875 -0.462391 2.292
-0.100614 -0.462399 2.292
-0.0954226 -0.467652 2.318
-0.00729263 -0.506047 2.508
-0.000428604 -0.495152 2.454
0.00617607 -0.487081 2.414
0.0127208 -0.485062 2.404
0.0192751 -0.484657 2.402
0.0258183 -0.484252 2.4
0.0322966 -0.483039 2.394
0.0387744 -0.482229 2.39
0.0451923 -0.481015 2.384
0.0516423 -0.480406 2.381
0.0582223 -0.481006 2.384
0.0648185 -0.481607 2.387
0.071939 -0.485636 2.407
0.0788423 -0.487648 2.417
0.0859768 -0.490668 2.432
0.0932691 -0.49409 2.449
-0.189535 -0.471734 2.308
-0.182284 -0.469296 2.296
-0.175557 -0.468083 2.29
-0.169011 -0.467279 2.286
-0.162414 -0.46627 2.281
-0.156461 -0.467101 2.285
-0.150223 -0.467113 2.285
-0.143858 -0.466716 2.283
-0.137623 -0.466727 2.283
-0.131447 -0.466942 2.284
-0.125483 -0.467975 2.289
-0.119179 -0.46778 2.288
-0.113374 -0.469629 2.297
-0.107147 -0.469843 2.298
-0.101396 -0.472305 2.31
-0.0959911 -0.476811 2.332
-0.00721644 -0.507543 2.482
-0.000428394 -0.501613 2.453
0.00625487 -0.499977 2.445
0.012815 -0.495273 2.422
0.0194019 -0.494454 2.418
0.0259668 -0.493634 2.414
0.0324423 -0.491791 2.405
0.0388361 -0.489539 2.394
0.0452455 -0.488104 2.387
0.0516381 -0.486873 2.381
0.0581931 -0.487278 2.383
0.0648132 -0.48809 2.387
0.0719032 -0.49197 2.406
0.0788685 -0.494418 2.418
0.0859345 -0.497069 2.431
0.0928046 -0.498288 2.437
-0.203115 -0.495796 2.394
-0.190259 -0.479865 2.317
-0.182587 -0.476359 2.3
-0.175467 -0.474094 2.289
-0.168702 -0.472658 2.282
-0.162117 -0.471636 2.277
-0.156106 -0.47227 2.28
-0.150013 -0.472696 2.282
-0.143909 -0.473122 2.284
-0.137612 -0.472926 2.283
-0.131091 -0.471901 2.278
-0.125199 -0.473155 2.284
-0.119326 -0.474615 2.291
-0.114303 -0.479803 2.316
-0.10821 -0.480848 2.321
-0.102309 -0.482929 2.331
-0.0965184 -0.485837 2.345
-0.0908042 -0.489574 2.363
-0.00714025 -0.508896 2.456
-0.000429756 -0.509933 2.461
0.00625179 -0.50641 2.444
0.0128669 -0.503923 2.432
0.0194243 -0.501642 2.421
0.0259862 -0.500604 2.416
0.0324936 -0.499151 2.409
0.0388491 -0.496248 2.395
0.0452038 -0.494172 2.385
0.0516772 -0.493754 2.383
0.0583593 -0.4952 2.39
0.0650523 -0.496438 2.396
0.0718974 -0.498504 2.406
0.0789599 -0.501606 2.421
0.0859274 -0.503671 2.431
0.0929113 -0.505528 2.44
-0.198857 -0.491805 2.344
-0.191065 -0.488253 2.327
-0.183049 -0.483862 2.306
-0.1753 -0.479889 2.287
-0.168319 -0.477804 2.277
-0.161605 -0.476349 2.27
-0.156231 -0.478879 2.282
-0.150264 -0.479731 2.286
-0.144527 -0.481422 2.294
-0.138023 -0.480594 2.29
-0.131656 -0.480185 2.288
-0.125627 -0.481035 2.292
-0.120097 -0.483983 2.306
-0.115231 -0.490079 2.335
-0.109553 -0.493237 2.35
-0.103398 -0.494505 2.356
-0.0970455 -0.494933 2.358
-0.0916806 -0.500818 2.386
-0.00718908 -0.519134 2.473
-0.000430418 -0.517455 2.465
0.00626406 -0.514096 2.449
0.0128975 -0.511786 2.438
0.0194869 -0.509895 2.429
0.02607 -0.508844 2.424
0.0325044 -0.505902 2.41
0.0388783 -0.50317 2.397
0.0452001 -0.500648 2.385
0.0515429 -0.498965 2.377
0.0582812 -0.501059 2.387
0.0649655 -0.502314 2.393
0.0719512 -0.505457 2.408
0.078823 -0.50734 2.417
0.0859911 -0.510691 2.433
0.093094 -0.513203 2.445
-0.190229 -0.492444 2.317
-0.182558 -0.488846 2.3
-0.175132 -0.485672 2.285
-0.168231 -0.483772 2.276
-0.161308 -0.48166 2.266
-0.155739 -0.483586 2.275
-0.150055 -0.485299 2.283
-0.144516 -0.487649 2.294
-0.138313 -0.487873 2.295
-0.132508 -0.489585 2.303
-0.126713 -0.491508 2.312
-0.121025 -0.49407 2.324
-0.115765 -0.498757 2.346
-0.109917 -0.501317 2.358
-0.104048 -0.50409 2.371
-0.0981075 -0.506862 2.384
-0.00725243 -0.530525 2.495
-0.000430033 -0.523721 2.463
0.00625331 -0.519894 2.445
0.0128912 -0.518192 2.437
0.0194051 -0.514363 2.419
0.0259603 -0.513298 2.414
0.0325017 -0.512445 2.41
0.0390697 -0.512229 2.409
0.0452911 -0.508186 2.39
0.051582 -0.505843 2.379
0.0581787 -0.506689 2.383
0.0650687 -0.50966 2.397
0.0720349 -0.512631 2.411
0.0789795 -0.514964 2.422
0.08609 -0.517934 2.436
0.0939239 -0.524517 2.467
-0.190132 -0.498517 2.316
-0.18302 -0.496379 2.306
-0.175655 -0.49338 2.292
-0.168292 -0.490165 2.277
-0.161722 -0.489101 2.272
-0.156479 -0.492128 2.286
-0.150372 -0.492571 2.288
-0.144945 -0.495382 2.301
-0.138664 -0.495393 2.301
-0.133303 -0.498849 2.317
-0.12758 -0.501228 2.328
-0.1219 -0.504037 2.341
-0.115508 -0.504047 2.341
-0.110048 -0.508363 2.361
-0.104566 -0.513108 2.383
-0.0991282 -0.518715 2.409
-0.0071937 -0.53299 2.475
-0.000428252 -0.528253 2.453
0.00626046 -0.527176 2.448
0.0128954 -0.525021 2.438
0.0194034 -0.520929 2.419
0.0259152 -0.518988 2.41
0.0326473 -0.521355 2.421
0.0393746 -0.522859 2.428
0.0458747 -0.521348 2.421
0.0519245 -0.515745 2.395
0.0583936 -0.515095 2.392
0.0650633 -0.516166 2.397
0.0719393 -0.518529 2.408
0.0787447 -0.52003 2.415
0.0861536 -0.524976 2.438
0.0937639 -0.530352 2.463
-0.19258 -0.51134 2.346
-0.186497 -0.512227 2.35
-0.176714 -0.50265 2.306
-0.169091 -0.498741 2.288
-0.163204 -0.499844 2.293
-0.157014 -0.500075 2.294
-0.150951 -0.500741 2.297
-0.145248 -0.502716 2.306
-0.139195 -0.503599 2.31
-0.133119 -0.504482 2.314
-0.127624 -0.507763 2.329
-0.121838 -0.510172 2.34
-0.115894 -0.512144 2.349
-0.110039 -0.514769 2.361
-0.104645 -0.520011 2.385
-0.0993257 -0.526343 2.414
-0.0939627 -0.533328 2.446
-0.00714078 -0.535781 2.457
-0.000427867 -0.534473 2.451
0.00625994 -0.533819 2.448
0.012926 -0.532946 2.444
0.0194259 -0.528147 2.422
0.0259883 -0.527055 2.417
0.0327659 -0.529887 2.43
0.0395497 -0.531847 2.439
0.0459846 -0.529226 2.427
0.0523971 -0.527042 2.417
0.0588281 -0.525511 2.41
0.0654378 -0.525723 2.411
0.0720826 -0.526154 2.413
0.0789338 -0.527892 2.421
0.0860051 -0.53072 2.434
0.0937942 -0.537254 2.464
-0.195355 -0.525207 2.38
-0.186085 -0.517498 2.345
-0.178155 -0.513099 2.325
-0.171221 -0.511348 2.317
-0.164827 -0.511141 2.316
-0.158644 -0.511595 2.318
-0.152056 -0.510725 2.314
-0.145929 -0.5114 2.317
-0.139786 -0.512073 2.32
-0.134144 -0.514733 2.332
-0.128107 -0.516068 2.338
-0.122037 -0.517403 2.344
-0.115736 -0.517855 2.346
-0.10975 -0.51985 2.355
-0.104286 -0.524716 2.377
-0.0988649 -0.530464 2.403
-0.0929946 -0.534445 2.421
-0.00718377 -0.545759 2.472
-0.000429052 -0.542669 2.458
0.00630032 -0.543993 2.464
0.0129567 -0.540901 2.45
0.0195686 -0.538692 2.44
0.0261258 -0.536483 2.43
0.032925 -0.539129 2.442
0.0394653 -0.53736 2.434
0.0459618 -0.53559 2.426
0.0524794 -0.534482 2.421
0.0591649 -0.53514 2.424
0.0657037 -0.534473 2.421
0.0721662 -0.533363 2.416
0.0787968 -0.533577 2.417
0.0857859 -0.535999 2.428
0.0932155 -0.540627 2.449
-0.186943 -0.526316 2.356
-0.17952 -0.523427 2.343
-0.173276 -0.523888 2.345
-0.167091 -0.524572 2.348
-0.159795 -0.521681 2.335
-0.152569 -0.518789 2.322
-0.146043 -0.518131 2.319
-0.140377 -0.520601 2.33
-0.134765 -0.523517 2.343
-0.128808 -0.525315 2.351
-0.122287 -0.524879 2.349
-0.116614 -0.52824 2.364
-0.110394 -0.529367 2.369
-0.104233 -0.53094 2.376
-0.0987332 -0.536312 2.4
-0.0930253 -0.541236 2.422
-0.00717445 -0.551794 2.469
-0.000432682 -0.55403 2.479
0.00632791 -0.553135 2.475
0.0130138 -0.550006 2.461
0.0196712 -0.548216 2.453
0.0262526 -0.545756 2.442
0.0329627 -0.546424 2.445
0.0393971 -0.543069 2.43
0.045939 -0.541948 2.425
0.0523883 -0.540156 2.417
0.0593064 -0.543056 2.43
0.0658339 -0.542157 2.426
0.0723095 -0.541034 2.421
0.078725 -0.539687 2.415
0.0857788 -0.542585 2.428
0.0939308 -0.551516 2.468
-0.197786 -0.5449 2.41
-0.188594 -0.537454 2.377
-0.180501 -0.53272 2.356
-0.174222 -0.533187 2.358
-0.168287 -0.534784 2.365
-0.161492 -0.533667 2.36
-0.153936 -0.529835 2.343
-0.147102 -0.528265 2.336
-0.141149 -0.529859 2.343
-0.135962 -0.53462 2.364
-0.129619 -0.535083 2.366
-0.122953 -0.534189 2.362
-0.11769 -0.539627 2.386
-0.112248 -0.544838 2.409
-0.10576 -0.5453 2.411
-0.0997122 -0.548249 2.424
-0.0941313 -0.554364 2.451
-0.00725519 -0.564824 2.497
-0.000432645 -0.560753 2.479
0.00633505 -0.560526 2.478
0.0130391 -0.557811 2.466
0.0196535 -0.554417 2.451
0.0262934 -0.553284 2.446
0.0328925 -0.551924 2.44
0.0394748 -0.55079 2.435
0.045954 -0.548751 2.426
0.052514 -0.548068 2.423
0.0590817 -0.547611 2.421
0.0657741 -0.548284 2.424
0.0722736 -0.547374 2.42
0.078751 -0.546463 2.416
0.0858422 -0.549622 2.43
0.0943035 -0.560471 2.478
-0.189848 -0.54756 2.393
-0.181253 -0.541397 2.366
-0.174356 -0.540038 2.36
-0.168772 -0.542798 2.372
-0.162437 -0.543269 2.374
-0.155829 -0.542825 2.372
-0.147971 -0.537803 2.35
-0.14186 -0.538959 2.355
-0.136238 -0.542174 2.369
-0.130047 -0.54333 2.374
-0.123932 -0.544942 2.381
-0.118469 -0.549759 2.402
-0.112658 -0.55343 2.418
-0.106409 -0.555271 2.426
-0.100239 -0.557797 2.437
-0.094469 -0.56307 2.46
-0.00726329 -0.572282 2.5
-0.00043383 -0.569077 2.486
0.00634985 -0.568619 2.484
0.0130856 -0.566558 2.475
0.0196919 -0.562208 2.456
0.0262375 -0.558772 2.441
0.0330514 -0.561288 2.452
0.0395039 -0.557851 2.437
0.0461017 -0.55716 2.434
0.0525745 -0.555325 2.426
0.05915 -0.554862 2.424
0.06566 -0.553942 2.42
0.0722974 -0.554165 2.421
0.0791029 -0.555532 2.427
0.0862942 -0.559187 2.443
0.0948284 -0.570395 2.492
-0.201529 -0.568618 2.456
-0.190626 -0.556363 2.403
-0.181315 -0.548042 2.367
-0.175376 -0.549678 2.374
-0.168758 -0.549229 2.372
-0.162492 -0.549937 2.375
-0.156473 -0.551571 2.382
-0.1501 -0.552047 2.384
-0.142752 -0.548817 2.37
-0.136975 -0.551607 2.382
-0.130584 -0.552081 2.384
-0.12439 -0.553482 2.39
-0.118163 -0.554881 2.396
-0.112556 -0.559523 2.416
-0.106049 -0.559995 2.418
-0.0999423 -0.562783 2.43
-0.0941155 -0.567655 2.451
-0.0884947 -0.57461 2.481
-0.00728882 -0.581144 2.509
-0.000436061 -0.578828 2.499
0.00634931 -0.575354 2.484
0.013058 -0.57211 2.47
0.019586 -0.565855 2.443
0.0262245 -0.565158 2.44
0.0328869 -0.565156 2.44
0.0395492 -0.565153 2.44
0.0460599 -0.563296 2.432
0.0526351 -0.562597 2.429
0.0589742 -0.559813 2.417
0.0654103 -0.558418 2.411
0.0721121 -0.559339 2.415
0.0792266 -0.563038 2.431
0.0868167 -0.569284 2.458
0.094554 -0.57553 2.485
-0.201594 -0.575509 2.457
-0.191404 -0.565218 2.413
-0.182909 -0.559377 2.388
-0.176248 -0.558923 2.386
-0.169598 -0.558469 2.384
-0.162479 -0.556374 2.375
-0.156788 -0.559199 2.387
-0.150591 -0.560383 2.392
-0.144185 -0.560863 2.394
-0.138056 -0.562515 2.401
-0.131285 -0.561589 2.397
-0.124848 -0.562068 2.399
-0.118252 -0.561844 2.398
-0.1125 -0.565837 2.415
-0.105865 -0.565612 2.414
-0.0998105 -0.568667 2.427
-0.0939539 -0.573361 2.447
-0.0881306 -0.578992 2.471
-0.0142006 -0.590522 2.52
-0.00730273 -0.589117 2.514
-0.000437071 -0.587008 2.505
0.00632321 -0.579744 2.474
0.0129459 -0.573884 2.449
0.0196244 -0.573649 2.448
0.0262222 -0.571772 2.44
0.0328571 -0.571301 2.438
0.0395621 -0.572001 2.441
0.0461507 -0.57106 2.437
0.0527173 -0.570118 2.433
0.059018 -0.566833 2.419
0.0654048 -0.564953 2.411
0.0720761 -0.56565 2.414
0.0793828 -0.570799 2.436
0.0868094 -0.575947 2.458
0.0948504 -0.58414 2.493
-0.193054 -0.576733 2.434
-0.184272 -0.570114 2.406
-0.177415 -0.569181 2.402
-0.170793 -0.568958 2.401
-0.163765 -0.567313 2.394
-0.156907 -0.566141 2.389
-0.150956 -0.568287 2.398
-0.144896 -0.570195 2.406
-0.138734 -0.571866 2.413
-0.131438 -0.568796 2.4
-0.124942 -0.569044 2.401
-0.119376 -0.573794 2.421
-0.113375 -0.576885 2.434
-0.106601 -0.576183 2.431
-0.100625 -0.579984 2.447
-0.0945219 -0.583548 2.462
-0.0888364 -0.590429 2.491
-0.0140923 -0.592848 2.501
-0.00725273 -0.591901 2.497
-0.000432498 -0.587634 2.479
0.00628434 -0.582893 2.459
0.0130029 -0.583129 2.46
0.0195987 -0.579572 2.445
0.0263275 -0.580755 2.45
0.033016 -0.580753 2.45
0.0397045 -0.58075 2.45
0.0461846 -0.578139 2.439
0.0526478 -0.576001 2.43
0.0590861 -0.5741 2.422
0.065562 -0.572909 2.417
0.0724283 -0.575037 2.426
0.0794087 -0.577638 2.437
0.086908 -0.583319 2.461
0.0945761 -0.589237 2.486
-0.194942 -0.58908 2.458
-0.187167 -0.585741 2.444
-0.179099 -0.581202 2.425
-0.171775 -0.578819 2.415
-0.165667 -0.580511 2.422
-0.158864 -0.579805 2.419
-0.151951 -0.57862 2.414
-0.145185 -0.577913 2.411
-0.138723 -0.578404 2.413
-0.13192 -0.577457 2.409
-0.125348 -0.577467 2.409
-0.119859 -0.582751 2.431
-0.113692 -0.585158 2.441
-0.106943 -0.584688 2.439
-0.100534 -0.586135 2.445
-0.0947059 -0.591417 2.467
-0.0889002 -0.597658 2.493
-0.0141418 -0.601782 2.51
-0.00719692 -0.594111 2.478
-0.000430542 -0.591714 2.468
0.00631702 -0.592673 2.472
0.0130283 -0.590994 2.465
0.0197173 -0.589793 2.46
0.0262715 -0.586195 2.445
0.0330806 -0.58859 2.455
0.0397174 -0.587628 2.451
0.0461049 -0.583788 2.435
0.0525783 -0.581866 2.427
0.0591787 -0.581622 2.426
0.0658819 -0.582336 2.429
0.0727207 -0.584008 2.436
0.0796626 -0.586159 2.445
0.0867947 -0.589269 2.458
0.0945682 -0.595973 2.486
-0.187995 -0.595028 2.455
-0.179897 -0.590438 2.436
-0.172187 -0.586816 2.421
-0.165859 -0.5878 2.425
-0.15977 -0.589752 2.433
-0.152756 -0.588311 2.427
-0.145956 -0.587596 2.424
-0.138769 -0.585184 2.414
-0.132347 -0.585922 2.417
-0.126326 -0.5886 2.428
-0.119849 -0.589337 2.431
-0.113216 -0.589347 2.431
-0.106802 -0.590568 2.436
-0.100279 -0.591304 2.439
-0.0940837 -0.594222 2.451
-0.089178 -0.606352 2.501
-0.0142026 -0.611249 2.521
-0.00725439 -0.605674 2.498
-0.000430854 -0.598885 2.47
0.00628837 -0.596703 2.461
0.013006 -0.596702 2.461
0.0196515 -0.594518 2.452
0.0263659 -0.595001 2.454
0.0330508 -0.594756 2.453
0.0397302 -0.59451 2.452
0.0461578 -0.591112 2.438
0.0527255 -0.590138 2.434
0.0593932 -0.590376 2.435
0.0660932 -0.590856 2.437
0.0728339 -0.591577 2.44
0.0796885 -0.593025 2.446
0.0869993 -0.597382 2.464
0.0945221 -0.602466 2.485
-0.188668 -0.603883 2.464
-0.181138 -0.601202 2.453
-0.173809 -0.599011 2.444
-0.166597 -0.597064 2.436
-0.160282 -0.598303 2.441
-0.153814 -0.599052 2.444
-0.146485 -0.596368 2.433
-0.139274 -0.593929 2.423
-0.132774 -0.59443 2.425
-0.126523 -0.596157 2.432
-0.120086 -0.597148 2.436
-0.113533 -0.597648 2.438
-0.106969 -0.598147 2.44
-0.10027 -0.597911 2.439
-0.0940758 -0.600861 2.451
-0.0882791 -0.606997 2.476
-0.0142014 -0.618078 2.521
-0.00725958 -0.61293 2.5
-0.00043134 -0.606311 2.473
0.00628017 -0.602633 2.458
0.0129626 -0.601406 2.453
0.0197139 -0.603121 2.46
0.0263315 -0.600913 2.451
0.0329941 -0.60042 2.449
0.0395324 -0.59821 2.44
0.0461349 -0.597471 2.437
0.052786 -0.597467 2.437
0.0593881 -0.596972 2.435
0.0661961 -0.598437 2.441
0.0730068 -0.599657 2.446
0.08004 -0.602347 2.457
0.0870978 -0.604792 2.467
-0.182378 -0.612058 2.47
-0.174506 -0.608108 2.454
-0.16672 -0.604157 2.438
-0.160466 -0.605658 2.444
-0.153612 -0.604927 2.441
-0.146955 -0.60494 2.441
-0.139608 -0.601977 2.429
-0.133092 -0.602485 2.431
-0.126669 -0.603487 2.435
-0.120569 -0.606223 2.446
-0.114641 -0.610199 2.462
-0.1081 -0.611199 2.466
-0.101125 -0.609721 2.46
-0.0947586 -0.61196 2.469
-0.0894837 -0.62213 2.51
-0.0141157 -0.621187 2.506
-0.00725025 -0.618957 2.497
-0.000432175 -0.614248 2.478
0.00629752 -0.611025 2.465
0.0129985 -0.609785 2.46
0.0197122 -0.609783 2.46
0.0264259 -0.609781 2.46
0.0329778 -0.606804 2.448
0.0395776 -0.605562 2.443
0.0461878 -0.604815 2.44
0.0529331 -0.605802 2.444
0.0595538 -0.605301 2.442
0.0661905 -0.605048 2.441
0.0730901 -0.607025 2.449
0.0800984 -0.609497 2.459
0.0871963 -0.612217 2.47
-0.181699 -0.616492 2.461
-0.175487 -0.61826 2.468
-0.168006 -0.615519 2.457
-0.160847 -0.613779 2.45
-0.153788 -0.612288 2.444
-0.146582 -0.610046 2.435
-0.140056 -0.610559 2.437
-0.134121 -0.613827 2.45
-0.127906 -0.616093 2.459
-0.121939 -0.619862 2.474
-0.115562 -0.621876 2.482
-0.108836 -0.622136 2.483
-0.102226 -0.623147 2.487
-0.096017 -0.626914 2.502
-0.0895474 -0.629428 2.512
-0.0140018 -0.622961 2.486
-0.00721479 -0.622711 2.485
-0.00043301 -0.62221 2.483
0.00632508 -0.620456 2.476
0.0130397 -0.618451 2.468
0.0197346 -0.617196 2.463
0.0264022 -0.615941 2.458
0.0329481 -0.612932 2.446
0.0394932 -0.610924 2.438
0.0460514 -0.609667 2.433
0.0527553 -0.610415 2.436
0.0592805 -0.609157 2.431
0.066212 -0.611908 2.442
0.0729646 -0.612654 2.445
0.0801893 -0.616907 2.462
0.0874007 -0.620408 2.476
-0.176397 -0.628234 2.481
-0.169086 -0.626222 2.473
-0.161752 -0.623957 2.464
-0.154153 -0.620424 2.45
-0.147111 -0.618917 2.444
-0.141078 -0.621715 2.455
-0.135095 -0.625019 2.468
-0.128884 -0.627562 2.478
-0.122076 -0.62732 2.477
-0.115786 -0.629862 2.487
-0.10887 -0.629112 2.484
-0.102259 -0.630134 2.488
-0.0962392 -0.635208 2.508
-0.0899319 -0.639014 2.523
-0.021035 -0.637289 2.516
-0.0140457 -0.631718 2.494
-0.00721127 -0.629186 2.484
-0.000432276 -0.627919 2.479
0.00631432 -0.626146 2.472
0.012991 -0.622853 2.459
0.0196368 -0.620825 2.451
0.026314 -0.620569 2.45
0.0329183 -0.619047 2.444
0.0395222 -0.618031 2.44
0.0460664 -0.616507 2.434
0.0527292 -0.616757 2.435
0.0594705 -0.617765 2.439
0.0661521 -0.618013 2.44
0.0731076 -0.62054 2.45
0.08015 -0.623319 2.461
0.0879581 -0.631164 2.492
-0.170986 -0.640082 2.501
-0.163183 -0.636257 2.486
-0.15565 -0.633199 2.474
-0.148303 -0.630652 2.464
-0.142044 -0.632712 2.472
-0.135686 -0.634515 2.479
-0.128977 -0.634782 2.48
-0.122854 -0.63812 2.493
-0.116055 -0.63813 2.493
-0.10908 -0.637116 2.489
-0.102579 -0.638916 2.496
-0.0964229 -0.643276 2.513
-0.0903877 -0.649172 2.536
-0.0210917 -0.645891 2.523
-0.0141008 -0.641029 2.504
-0.00722226 -0.636934 2.488
-0.000432065 -0.634374 2.478
0.00632144 -0.633606 2.475
0.0130321 -0.631557 2.467
0.0196511 -0.627971 2.453
0.0263654 -0.628481 2.455
0.0330233 -0.627711 2.452
0.039697 -0.627452 2.451
0.0461381 -0.62412 2.438
0.0528546 -0.624884 2.441
0.0594654 -0.624367 2.439
0.0664176 -0.627178 2.45
0.0733699 -0.629476 2.459
0.0807294 -0.634589 2.479
-0.171929 -0.650472 2.515
-0.163629 -0.644796 2.493
-0.156707 -0.644292 2.491
-0.149193 -0.641201 2.479
-0.142434 -0.641213 2.479
-0.135674 -0.641224 2.479
-0.130267 -0.647961 2.505
-0.123485 -0.64823 2.506
-0.117116 -0.650827 2.516
-0.109991 -0.649284 2.51
-0.103351 -0.650586 2.515
-0.0970286 -0.654216 2.529
-0.0903801 -0.656035 2.536
-0.0212821 -0.65867 2.546
-0.0142122 -0.65298 2.524
-0.00726228 -0.647289 2.502
-0.000433248 -0.642891 2.485
0.00634389 -0.642632 2.484
0.0130891 -0.641079 2.478
0.0197936 -0.639267 2.471
0.0264276 -0.636678 2.461
0.0331416 -0.636675 2.461
0.0397908 -0.635637 2.457
0.0462477 -0.63227 2.444
0.0528718 -0.631749 2.442
0.0595579 -0.632003 2.443
0.0664391 -0.634067 2.451
0.0735725 -0.637942 2.466
0.081211 -0.645178 2.494
-0.171574 -0.655972 2.51
-0.164469 -0.65494 2.506
-0.157323 -0.653646 2.501
-0.149722 -0.650261 2.488
-0.142882 -0.650012 2.487
-0.136484 -0.651853 2.494
-0.130932 -0.658137 2.518
-0.124706 -0.661546 2.531
-0.118409 -0.664954 2.544
-0.111165 -0.663134 2.537
-0.104329 -0.663666 2.539
-0.0977494 -0.666027 2.548
-0.0213388 -0.667389 2.553
-0.014211 -0.659809 2.524
-0.00726747 -0.654582 2.504
-0.000434257 -0.651184 2.491
0.00636378 -0.651445 2.492
0.013162 -0.651444 2.492
0.019848 -0.647783 2.478
0.0265435 -0.646213 2.472
0.0332196 -0.644903 2.467
0.0398846 -0.643854 2.463
0.0462817 -0.639407 2.446
0.0528673 -0.638357 2.442
0.059431 -0.637307 2.438
0.0662708 -0.639131 2.445
0.0735663 -0.644615 2.466
0.0812367 -0.652189 2.495
-0.172858 -0.66778 2.529
-0.165374 -0.665417 2.52
-0.157499 -0.661205 2.504
-0.149469 -0.655937 2.484
-0.143559 -0.65991 2.499
-0.137075 -0.661506 2.505
-0.130193 -0.661253 2.504
-0.124548 -0.667601 2.528
-0.118307 -0.671309 2.542
-0.111331 -0.671054 2.541
-0.104566 -0.67212 2.545
-0.0983933 -0.67741 2.565
-0.021337 -0.674296 2.553
-0.0141985 -0.66611 2.522
-0.00726395 -0.661093 2.503
-0.000433872 -0.657395 2.489
0.00635558 -0.657395 2.489
0.0130975 -0.655017 2.48
0.0198063 -0.653167 2.473
0.026509 -0.652108 2.469
0.0332572 -0.65237 2.47
0.0398488 -0.64999 2.461
0.0463723 -0.647345 2.451
0.0527546 -0.643643 2.437
0.0593528 -0.64311 2.435
0.0661839 -0.644954 2.442
0.0733513 -0.649438 2.459
0.081067 -0.657618 2.49
-0.171819 -0.67062 2.514
-0.166279 -0.675969 2.534
-0.158681 -0.673048 2.523
-0.150961 -0.669326 2.509
-0.144352 -0.670405 2.513
-0.137392 -0.669883 2.511
-0.130338 -0.668827 2.507
-0.123799 -0.670438 2.513
-0.117785 -0.675251 2.531
-0.11084 -0.674993 2.53
-0.104475 -0.678471 2.543
-0.0981166 -0.682481 2.558
-0.0213269 -0.680936 2.552
-0.0141861 -0.672399 2.52
-0.00724882 -0.66653 2.498
-0.000432266 -0.661727 2.48
0.00633461 -0.661994 2.481
0.0130277 -0.658257 2.467
0.0197806 -0.659056 2.47
0.0265282 -0.659321 2.471
0.0333217 -0.660386 2.475
0.0399102 -0.657715 2.465
0.0464819 -0.655576 2.457
0.0529233 -0.65237 2.445
0.059689 -0.653433 2.449
0.0665848 -0.655562 2.457
0.0736732 -0.659025 2.47
0.0807672 -0.661953 2.481
-0.173513 -0.684157 2.539
-0.1662 -0.682554 2.533
-0.158353 -0.678525 2.518
-0.15125 -0.67746 2.514
-0.144455 -0.677742 2.515
-0.13749 -0.677214 2.513
-0.130379 -0.675878 2.508
-0.123838 -0.677505 2.514
-0.117728 -0.681827 2.53
-0.110699 -0.681028 2.527
-0.104056 -0.682654 2.533
-0.0981084 -0.6894 2.558
-0.0213 -0.687029 2.549
-0.0142186 -0.680832 2.526
-0.00725401 -0.673825 2.5
-0.000432404 -0.668704 2.481
0.00632131 -0.667356 2.476
0.013053 -0.666277 2.472
0.0198429 -0.667893 2.478
0.0266119 -0.668161 2.479
0.0333189 -0.66708 2.475
0.0398421 -0.663304 2.461
0.0465347 -0.66303 2.46
0.0531136 -0.661409 2.454
0.0601958 -0.665717 2.47
0.0669857 -0.66625 2.472
0.0737267 -0.666245 2.472
-0.173978 -0.692929 2.546
-0.166187 -0.689405 2.533
-0.158341 -0.685335 2.518
-0.151478 -0.685348 2.518
-0.144673 -0.685632 2.519
-0.137807 -0.685644 2.519
-0.130836 -0.68511 2.517
-0.124468 -0.687843 2.527
-0.117858 -0.689486 2.533
-0.111041 -0.69004 2.535
-0.104294 -0.691138 2.539
-0.097755 -0.693868 2.549
-0.0212898 -0.693651 2.548
-0.0141668 -0.685213 2.517
-0.0072592 -0.68113 2.502
-0.000433413 -0.677047 2.487
0.0063463 -0.676775 2.486
0.0130994 -0.675413 2.481
0.0199213 -0.677317 2.488
0.026717 -0.677587 2.489
0.0333968 -0.675407 2.481
0.0398387 -0.669959 2.461
0.0464741 -0.668867 2.457
0.0533039 -0.670496 2.463
0.0605319 -0.676208 2.484
0.0673052 -0.676202 2.484
0.0736609 -0.672385 2.47
-0.167026 -0.699828 2.546
-0.158894 -0.694618 2.527
-0.151646 -0.692982 2.521
-0.144603 -0.692169 2.518
-0.137795 -0.692455 2.519
-0.131293 -0.694391 2.526
-0.124852 -0.696875 2.535
-0.118314 -0.699085 2.543
-0.111294 -0.698544 2.541
-0.104655 -0.700477 2.548
-0.0982838 -0.70461 2.563
-0.0211711 -0.696691 2.534
-0.0140924 -0.688445 2.504
-0.00721798 -0.684047 2.488
-0.000433725 -0.684322 2.489
0.00635598 -0.684596 2.49
0.0131511 -0.684871 2.491
0.0199277 -0.684319 2.489
0.0266933 -0.683768 2.487
0.0333671 -0.681565 2.479
0.0399487 -0.678538 2.468
0.0466782 -0.678535 2.468
0.0535159 -0.679905 2.473
0.0606487 -0.684299 2.489
0.0676789 -0.686768 2.498
-0.160641 -0.709223 2.555
-0.152596 -0.704239 2.537
-0.144936 -0.700643 2.524
-0.137675 -0.698711 2.517
-0.131231 -0.700943 2.525
-0.125038 -0.70484 2.539
-0.118537 -0.707348 2.548
-0.111767 -0.708468 2.552
-0.104893 -0.709032 2.554
-0.0989658 -0.716536 2.581
-0.0210691 -0.700211 2.522
-0.014035 -0.692438 2.494
-0.00721447 -0.690495 2.487
-0.000434211 -0.691884 2.492
0.00637587 -0.69355 2.498
0.0131553 -0.691883 2.492
0.01987 -0.689105 2.482
0.026573 -0.687437 2.476
0.0332297 -0.685491 2.469
0.0398968 -0.684378 2.465
0.0466743 -0.685207 2.468
0.0535547 -0.687146 2.475
0.0607411 -0.692139 2.493
0.0678087 -0.69491 2.503
-0.161006 -0.717812 2.561
-0.152584 -0.711098 2.537
-0.145097 -0.708307 2.527
-0.137664 -0.705516 2.517
-0.131584 -0.709731 2.532
-0.12557 -0.714787 2.55
-0.119085 -0.7176 2.56
-0.112152 -0.71789 2.561
-0.105582 -0.720702 2.571
-0.0995328 -0.727718 2.596
-0.0934182 -0.735295 2.623
-0.0281537 -0.712353 2.541
-0.0210339 -0.705907 2.518
-0.0140957 -0.702264 2.505
-0.00722837 -0.69862 2.492
-0.000434001 -0.69834 2.491
0.00637023 -0.699742 2.496
0.0131648 -0.69918 2.494
0.0198843 -0.696375 2.484
0.0265278 -0.693009 2.472
0.0331597 -0.690764 2.464
0.0399582 -0.692163 2.469
0.0468974 -0.695243 2.48
0.0538099 -0.697201 2.487
0.0606629 -0.698037 2.49
-0.160427 -0.722188 2.552
-0.153113 -0.720503 2.546
-0.145717 -0.718251 2.538
-0.138637 -0.717413 2.535
-0.132301 -0.720537 2.546
-0.126003 -0.724227 2.559
-0.118936 -0.723671 2.557
-0.112186 -0.725095 2.562
-0.105779 -0.729067 2.576
-0.10056 -0.742377 2.623
-0.0938023 -0.745498 2.634
-0.0209987 -0.71158 2.514
-0.0141114 -0.709884 2.508
-0.00726258 -0.708752 2.504
-0.00043623 -0.708753 2.504
0.00637225 -0.706771 2.497
0.0131637 -0.705921 2.494
0.0199227 -0.704504 2.489
0.02659 -0.701389 2.478
0.0332511 -0.699405 2.471
0.0399873 -0.699402 2.471
0.0468557 -0.70138 2.478
0.0536323 -0.701659 2.479
0.0604387 -0.70222 2.481
-0.163243 -0.741942 2.597
-0.154063 -0.731956 2.562
-0.146509 -0.72911 2.552
-0.139829 -0.73055 2.557
-0.133173 -0.732276 2.563
-0.126239 -0.732572 2.564
-0.118973 -0.730867 2.558
-0.112046 -0.731162 2.559
-0.106058 -0.738029 2.583
-0.100322 -0.747752 2.617
-0.0936166 -0.751189 2.629
-0.0282598 -0.728945 2.551
-0.021022 -0.719232 2.517
-0.0141553 -0.718948 2.516
-0.00726778 -0.716091 2.506
-0.000435497 -0.714377 2.5
0.00635386 -0.711519 2.49
0.0131467 -0.711804 2.491
0.019945 -0.712088 2.492
0.0267058 -0.711229 2.489
0.0333695 -0.708655 2.48
0.0400811 -0.707795 2.477
0.0468896 -0.708648 2.48
0.0537145 -0.709501 2.483
0.0604094 -0.70864 2.48
-0.166875 -0.765688 2.655
-0.155373 -0.745224 2.584
-0.147645 -0.741776 2.572
-0.140583 -0.741499 2.571
-0.133215 -0.739491 2.564
-0.125786 -0.736905 2.555
-0.118312 -0.733742 2.544
-0.111862 -0.736924 2.555
-0.10568 -0.742413 2.574
-0.0998535 -0.751363 2.605
-0.0932885 -0.755697 2.62
-0.0866745 -0.760319 2.636
-0.0282464 -0.73555 2.55
-0.0210287 -0.726322 2.518
-0.0141316 -0.724593 2.512
-0.00727878 -0.724017 2.51
-0.000436506 -0.722863 2.506
0.00635845 -0.718825 2.492
0.0131087 -0.716516 2.484
0.0198874 -0.716803 2.485
0.0266822 -0.717378 2.487
0.0335013 -0.718241 2.49
0.0401587 -0.715931 2.482
0.0469614 -0.716504 2.484
0.053775 -0.717077 2.486
-0.164348 -0.761218 2.615
-0.156023 -0.755409 2.595
-0.14815 -0.751346 2.581
-0.140572 -0.748446 2.571
-0.132996 -0.745254 2.56
-0.125332 -0.741189 2.546
-0.118628 -0.742654 2.551
-0.112159 -0.745866 2.562
-0.105712 -0.749659 2.575
-0.0997304 -0.757528 2.602
-0.093459 -0.764232 2.625
-0.0868977 -0.76948 2.643
-0.0284878 -0.748845 2.572
-0.0210687 -0.734581 2.523
-0.0141529 -0.732544 2.516
-0.00728398 -0.731381 2.512
-0.000436122 -0.729052 2.504
0.00636048 -0.725849 2.493
0.0130971 -0.722645 2.482
0.0199018 -0.7241 2.487
0.0266693 -0.723807 2.486
0.0334985 -0.724969 2.49
0.0402039 -0.72351 2.485
0.0472223 -0.727292 2.498
0.0540518 -0.727579 2.499
-0.164084 -0.767109 2.611
-0.15595 -0.762127 2.594
-0.147794 -0.756556 2.575
-0.140233 -0.75363 2.565
-0.13283 -0.75129 2.557
-0.125519 -0.749243 2.55
-0.118851 -0.751016 2.556
-0.112369 -0.754257 2.567
-0.105827 -0.757498 2.578
-0.0998757 -0.765734 2.606
-0.0935939 -0.7725 2.629
