# .PCD v.7 - Point Cloud Data file format
VERSION .7
FIELDS x y z
SIZE 4 4 4
TYPE F F F
COUNT 1 1 1
WIDTH 1894
HEIGHT 1
VIEWPOINT 0 0 0 1 0 0 0
POINTS 1894
DATA ascii
-0.235342 0.18656 2.258
-0.227749 0.185412 2.244
-0.22122 0.185091 2.24
-0.21452 0.184604 2.234
-0.208318 0.184529 2.233
-0.201668 0.184042 2.227
-0.195314 0.183802 2.224
-0.189145 0.183727 2.223
-0.183393 0.184065 2.227
-0.177539 0.18432 2.23
-0.171514 0.18441 2.231
-0.165409 0.184417 2.231
-0.159088 0.184175 2.228
-0.152715 0.183851 2.224
-0.146165 0.183278 2.217
-0.140475 0.18378 2.223
-0.13463 0.184117 2.227
-0.128763 0.184453 2.231
-0.122379 0.184045 2.226
-0.116387 0.184215 2.228
-0.110186 0.184054 2.226
-0.104322 0.184472 2.231
-0.0979906 0.184063 2.226
-0.0917274 0.183736 2.222
-0.0854087 0.183244 2.216
-0.0795163 0.183661 2.221
-0.0734639 0.183746 2.222
-0.0675573 0.184246 2.228
-0.0615901 0.184662 2.233
-0.0554709 0.184664 2.233
-0.0492852 0.184418 2.23
-0.0431932 0.184503 2.231
-0.0372285 0.185249 2.24
-0.0311449 0.185581 2.244
-0.0249612 0.185334 2.241
-0.0187688 0.184839 2.235
-0.012643 0.18484 2.235
-0.00654351 0.185584 2.244
-0.000394615 0.186329 2.253
0.00579079 0.18666 2.257
0.0120299 0.187486 2.267
0.0183158 0.18823 2.276
0.0246509 0.188973 2.285
0.0309947 0.189468 2.291
0.0375176 0.190707 2.306
0.0440846 0.191781 2.319
0.0505704 0.192275 2.325
0.0570644 0.192686 2.33
0.0636128 0.19318 2.336
0.0698941 0.192846 2.332
0.0761532 0.192512 2.328
0.0822837 0.19193 2.321
0.0883755 0.191348 2.314
0.0946332 0.191179 2.312
0.101404 0.192001 2.322
0.108089 0.192576 2.329
0.115108 0.193646 2.342
0.12173 0.193972 2.346
0.128646 0.194711 2.355
0.135382 0.195119 2.36
0.143528 0.197428 2.388
-0.360848 0.187775 2.353
-0.352025 0.18651 2.337
-0.344471 0.185884 2.329
-0.33696 0.185257 2.321
-0.330347 0.18511 2.319
-0.324441 0.185361 2.322
-0.317697 0.185133 2.319
-0.311773 0.185384 2.322
-0.304779 0.184996 2.317
-0.299486 0.185646 2.325
-0.293266 0.185736 2.326
-0.287409 0.186066 2.33
-0.282374 0.186955 2.341
-0.278103 0.188403 2.359
-0.2712 0.188094 2.355
-0.260045 0.18475 2.313
-0.250544 0.182443 2.284
-0.242378 0.181014 2.266
-0.235351 0.180384 2.258
-0.227454 0.179035 2.241
-0.221031 0.178804 2.238
-0.21424 0.178253 2.231
-0.208326 0.178421 2.233
-0.201586 0.177869 2.226
-0.195585 0.177957 2.227
-0.188983 0.177485 2.221
-0.183401 0.177972 2.227
-0.177307 0.177979 2.227
-0.171521 0.178305 2.231
-0.165119 0.177992 2.227
-0.158952 0.177919 2.226
-0.152447 0.177445 2.22
-0.146303 0.177371 2.219
-0.140481 0.177697 2.223
-0.134636 0.178022 2.227
-0.128595 0.178107 2.228
-0.122054 0.177473 2.22
-0.116183 0.177797 2.224
-0.110042 0.177722 2.223
-0.104233 0.178206 2.229
-0.0980387 0.17805 2.227
-0.0919376 0.178054 2.227
-0.0859132 0.178217 2.229
-0.0798418 0.178301 2.23
-0.0736322 0.178064 2.227
-0.0675601 0.178147 2.228
-0.0615926 0.178549 2.233
-0.0555229 0.178712 2.235
-0.0492651 0.178234 2.229
-0.0432337 0.178556 2.233
-0.0371801 0.178877 2.237
-0.0310906 0.179118 2.24
-0.0249177 0.17888 2.237
-0.0187611 0.178641 2.234
-0.0126549 0.178881 2.237
-0.00654378 0.179441 2.244
-0.000394632 0.180161 2.253
0.00579103 0.180481 2.257
0.0120304 0.18128 2.267
0.0183648 0.182479 2.282
0.0247167 0.183198 2.291
0.0310772 0.183676 2.297
0.0376168 0.184874 2.312
0.0442195 0.185992 2.326
0.0507466 0.18655 2.333
0.0571893 0.186708 2.335
0.0636155 0.186785 2.336
0.0700169 0.186783 2.336
0.0759601 0.18566 2.322
0.0820744 0.185097 2.315
0.0882645 0.184774 2.311
0.0948827 0.18533 2.318
0.101364 0.185566 2.321
0.107954 0.185962 2.326
0.11467 0.186517 2.333
0.121527 0.187231 2.342
0.128379 0.187866 2.35
0.134872 0.187941 2.351
0.142031 0.188894 2.363
-0.35902 0.18042 2.341
-0.351736 0.179969 2.335
-0.343892 0.17921 2.325
-0.336972 0.178914 2.321
-0.330501 0.178848 2.32
-0.324732 0.179168 2.324
-0.31853 0.179256 2.325
-0.312052 0.17919 2.324
-0.305053 0.178815 2.319
-0.298853 0.178903 2.32
-0.293024 0.179222 2.324
-0.287297 0.179618 2.329
-0.282385 0.180554 2.341
-0.278114 0.181952 2.359
-0.272477 0.182502 2.366
-0.260279 0.178578 2.315
-0.250005 0.17581 2.279
-0.241638 0.174276 2.259
-0.234422 0.173513 2.249
-0.226955 0.172519 2.236
-0.220447 0.172219 2.232
-0.213864 0.171841 2.227
-0.207961 0.172003 2.229
-0.201593 0.171779 2.226
-0.19568 0.171941 2.228
-0.189245 0.17164 2.224
-0.183408 0.171878 2.227
-0.177394 0.171962 2.228
-0.171527 0.1722 2.231
-0.165273 0.172052 2.229
-0.159029 0.171904 2.227
-0.152727 0.171679 2.224
-0.146507 0.17153 2.222
-0.140297 0.171381 2.22
-0.134157 0.171309 2.219
-0.128138 0.171391 2.22
-0.122114 0.171474 2.221
-0.116344 0.171941 2.227
-0.109947 0.171483 2.221
-0.10391 0.171564 2.222
-0.0976903 0.171336 2.219
-0.0919825 0.172035 2.228
-0.0859937 0.17227 2.231
-0.0798449 0.172196 2.23
-0.073536 0.171736 2.224
-0.0674415 0.171738 2.224
-0.061402 0.171895 2.226
-0.055376 0.172129 2.229
-0.0492229 0.171977 2.227
-0.0432548 0.172519 2.234
-0.0372149 0.172907 2.239
-0.0311474 0.173295 2.244
-0.0249633 0.173064 2.241
-0.0188123 0.172988 2.24
-0.012695 0.173297 2.244
-0.00656446 0.173838 2.251
-0.000395173 0.174224 2.256
0.00580922 0.174842 2.264
0.0120575 0.17546 2.272
0.0183897 0.176463 2.285
0.0247285 0.177003 2.292
0.0311596 0.177851 2.303
0.0376997 0.178931 2.317
0.0443544 0.180165 2.333
0.0508791 0.180626 2.339
0.0571671 0.180238 2.334
0.0635363 0.180158 2.333
0.0698698 0.180001 2.331
0.0759958 0.179381 2.323
0.0821131 0.178837 2.316
0.0883063 0.178525 2.312
0.0949274 0.179062 2.319
0.101368 0.179212 2.321
0.107819 0.179363 2.323
0.114478 0.179822 2.329
0.121117 0.180203 2.334
0.127673 0.18043 2.337
0.134188 0.180579 2.339
0.141495 0.181732 2.354
-0.359185 0.174096 2.342
-0.351748 0.173587 2.335
-0.344495 0.173153 2.329
-0.33771 0.172941 2.326
-0.331794 0.173175 2.329
-0.325442 0.173186 2.329
-0.319089 0.173197 2.329
-0.311795 0.172687 2.322
-0.305064 0.172474 2.319
-0.298992 0.172634 2.321
-0.293287 0.173016 2.326
-0.2878 0.173546 2.333
-0.282636 0.1743 2.343
-0.278595 0.175798 2.363
-0.273753 0.176849 2.377
-0.260288 0.172246 2.315
-0.249685 0.169353 2.276
-0.241005 0.16765 2.253
-0.233909 0.166989 2.244
-0.227065 0.166476 2.237
-0.220751 0.166335 2.235
-0.214256 0.166045 2.231
-0.207969 0.165904 2.229
-0.201963 0.165986 2.23
-0.195863 0.165993 2.23
-0.189508 0.165777 2.227
-0.18325 0.165635 2.225
-0.177162 0.165641 2.225
-0.171303 0.165871 2.228
-0.164983 0.165654 2.225
-0.158678 0.165437 2.222
-0.152458 0.165293 2.22
-0.146578 0.165522 2.223
-0.140302 0.165304 2.22
-0.133921 0.164937 2.215
-0.12797 0.165091 2.217
-0.122173 0.165468 2.222
-0.116244 0.165696 2.225
-0.109753 0.165104 2.217
-0.10368 0.165108 2.217
-0.0976061 0.165112 2.217
-0.0917384 0.165488 2.222
-0.0857272 0.16564 2.224
-0.0797406 0.165867 2.227
-0.0735057 0.165572 2.223
-0.0674138 0.165575 2.223
-0.061294 0.165503 2.222
-0.055403 0.166101 2.23
-0.0492469 0.165954 2.228
-0.0432758 0.166477 2.235
-0.0371498 0.166478 2.235
-0.0310931 0.166852 2.24
-0.0249642 0.166928 2.241
-0.018855 0.167227 2.245
-0.0127125 0.167376 2.247
-0.00655888 0.167525 2.249
-0.000394663 0.167824 2.253
0.00580688 0.168568 2.263
0.0120579 0.169238 2.272
0.0183985 0.170281 2.286
0.0247402 0.170801 2.293
0.0312149 0.171843 2.307
0.0376686 0.172438 2.315
0.0442801 0.173479 2.329
0.0508811 0.174222 2.339
0.0574142 0.174592 2.344
0.0637839 0.174441 2.342
0.0701123 0.174215 2.339
0.0762278 0.173542 2.33
0.0823645 0.173018 2.323
0.0886534 0.172865 2.321
0.0952176 0.173234 2.326
0.10159 0.173231 2.326
0.107777 0.172929 2.322
0.114286 0.173148 2.325
0.121121 0.173814 2.334
0.127897 0.17433 2.341
0.13448 0.174549 2.344
0.141741 0.175586 2.358
-0.361344 0.168697 2.356
-0.352813 0.167706 2.342
-0.345098 0.167072 2.333
-0.338447 0.16694 2.331
-0.332232 0.167023 2.332
-0.326151 0.167177 2.334
-0.319373 0.166972 2.331
-0.312208 0.166553 2.325
-0.305732 0.166491 2.324
-0.299904 0.166788 2.328
-0.29418 0.167156 2.333
-0.28855 0.167596 2.339
-0.283249 0.16825 2.348
-0.27884 0.169478 2.365
-0.258723 0.164909 2.301
-0.249584 0.163055 2.275
-0.241334 0.161701 2.256
-0.234438 0.161208 2.249
-0.227885 0.160929 2.245
-0.221549 0.160793 2.243
-0.215128 0.160586 2.24
-0.208443 0.160163 2.234
-0.202061 0.159955 2.231
-0.196046 0.160034 2.232
-0.18994 0.160041 2.232
-0.183586 0.159832 2.229
-0.177088 0.15948 2.224
-0.171156 0.159629 2.226
-0.164989 0.159564 2.225
-0.158827 0.159498 2.224
-0.15267 0.159432 2.223
-0.146584 0.159437 2.223
-0.139991 0.158868 2.215
-0.133623 0.158515 2.21
-0.127802 0.158806 2.214
-0.122233 0.159456 2.223
-0.1163 0.159676 2.226
-0.109807 0.159106 2.218
-0.10373 0.15911 2.218
-0.0975656 0.15897 2.216
-0.0917005 0.159332 2.221
-0.0856148 0.159336 2.221
-0.079672 0.159626 2.225
-0.0733762 0.159198 2.219
-0.0672647 0.159129 2.218
-0.0611308 0.158988 2.216
-0.0551566 0.159277 2.22
-0.0491603 0.159566 2.224
-0.0431806 0.159998 2.23
-0.0371679 0.16043 2.236
-0.0310665 0.160575 2.238
-0.024954 0.160719 2.24
-0.0188641 0.16115 2.246
-0.0127412 0.161582 2.252
-0.00658246 0.161941 2.257
-0.000395378 0.161941 2.257
0.00580454 0.162299 2.262
0.0120318 0.162658 2.267
0.0183509 0.16359 2.28
0.024698 0.164235 2.289
0.0312161 0.165525 2.307
0.0376863 0.16617 2.316
0.0443007 0.167173 2.33
0.0509265 0.16796 2.341
0.0575388 0.168532 2.349
0.0640314 0.168674 2.351
0.0702948 0.168241 2.345
0.0764923 0.167736 2.338
0.0826157 0.167159 2.33
0.0887331 0.166654 2.323
0.0952621 0.166937 2.327
0.101638 0.166934 2.327
0.10806 0.167002 2.328
0.114536 0.167141 2.33
0.121333 0.167711 2.338
0.127956 0.167993 2.342
0.134543 0.168203 2.345
0.141626 0.168987 2.356
-0.37402 0.165 2.396
-0.362429 0.162739 2.363
-0.35418 0.161923 2.351
-0.345848 0.161039 2.338
-0.338748 0.160705 2.333
-0.331958 0.160509 2.33
-0.325882 0.160657 2.332
-0.319384 0.160598 2.331
-0.312621 0.160401 2.328
-0.306531 0.160549 2.33
-0.300687 0.160834 2.334
-0.294694 0.16105 2.337
-0.2893 0.161611 2.345
-0.284223 0.162379 2.356
-0.280029 0.163697 2.375
-0.259856 0.159303 2.311
-0.250579 0.157451 2.284
-0.242519 0.156287 2.267
-0.234863 0.15533 2.253
-0.227994 0.154855 2.246
-0.221458 0.154586 2.242
-0.215135 0.154456 2.24
-0.208263 0.153911 2.232
-0.201705 0.153573 2.227
-0.195965 0.153856 2.231
-0.190031 0.154 2.233
-0.184004 0.154076 2.234
-0.177413 0.153668 2.228
-0.171238 0.153605 2.227
-0.164772 0.153266 2.222
-0.158618 0.153203 2.221
-0.152401 0.15307 2.219
-0.146325 0.153075 2.219
-0.139996 0.152804 2.215
-0.13387 0.15274 2.214
-0.127922 0.152882 2.216
-0.121907 0.152956 2.217
-0.115887 0.153029 2.218
-0.109811 0.153033 2.218
-0.103874 0.153244 2.221
-0.0978773 0.153385 2.223
-0.0917451 0.153319 2.222
-0.0856564 0.153323 2.222
-0.0796748 0.153533 2.225
-0.073445 0.153259 2.221
-0.0672671 0.153055 2.218
-0.0611606 0.152988 2.217
-0.0552332 0.153404 2.223
-0.0492063 0.153613 2.226
-0.0431628 0.153822 2.229
-0.0370695 0.153892 2.23
-0.0309566 0.153893 2.23
-0.0249104 0.154308 2.236
-0.018848 0.154861 2.244
-0.012736 0.155345 2.251
-0.00658561 0.155828 2.258
-0.000395217 0.15569 2.256
0.00579191 0.155759 2.257
0.0119633 0.155552 2.254
0.0182389 0.156379 2.266
0.0246018 0.157345 2.28
0.031109 0.158655 2.299
0.0375412 0.159206 2.307
0.0441122 0.160102 2.32
0.0507978 0.161135 2.335
0.0576389 0.162375 2.353
0.0643333 0.162994 2.362
0.0706271 0.162578 2.356
0.076626 0.161609 2.342
0.0826187 0.160778 2.33
0.0888127 0.16043 2.325
0.0953065 0.160634 2.328
0.10186 0.160907 2.332
0.108342 0.161041 2.334
0.114982 0.161382 2.339
0.121597 0.161654 2.343
0.128288 0.161994 2.348
0.134834 0.162128 2.35
0.141751 0.162675 2.358
0.149654 0.164256 2.381
-0.373406 0.158186 2.392
-0.362286 0.156213 2.362
-0.353739 0.155298 2.348
-0.345119 0.154316 2.333
-0.338032 0.153995 2.328
-0.330971 0.153674 2.323
-0.325473 0.154081 2.329
-0.31912 0.154091 2.329
-0.312899 0.154167 2.33
-0.306804 0.154308 2.332
-0.301083 0.154649 2.337
-0.294829 0.154724 2.338
-0.289556 0.155329 2.347
-0.284715 0.156198 2.36
-0.281335 0.157928 2.386
-0.259865 0.15298 2.311
-0.251356 0.151664 2.291
-0.243383 0.150613 2.275
-0.235184 0.149363 2.256
-0.228001 0.148708 2.246
-0.221465 0.14845 2.242
-0.215143 0.148325 2.24
-0.20855 0.148001 2.235
-0.201803 0.147544 2.228
-0.195971 0.147749 2.231
-0.190038 0.147888 2.233
-0.184175 0.148093 2.236
-0.177817 0.1479 2.233
-0.171244 0.147508 2.227
-0.164704 0.147116 2.221
-0.158552 0.147055 2.22
-0.1522 0.146796 2.216
-0.145934 0.146602 2.213
-0.139811 0.14654 2.212
-0.133753 0.146545 2.212
-0.127868 0.146748 2.215
-0.121801 0.146752 2.215
-0.115943 0.147021 2.219
-0.109963 0.147158 2.221
-0.104018 0.14736 2.224
-0.0979688 0.14743 2.225
-0.0918308 0.147367 2.224
-0.085775 0.147436 2.225
-0.0797492 0.147571 2.227
-0.0734145 0.14711 2.22
-0.0672695 0.14698 2.218
-0.0611627 0.146916 2.217
-0.0551854 0.147183 2.221
-0.0491417 0.147317 2.223
-0.0430675 0.147385 2.224
-0.0370708 0.147784 2.23
-0.0309854 0.147918 2.232
-0.0249224 0.14825 2.237
-0.0188571 0.148781 2.245
-0.0127591 0.149444 2.255
-0.00660334 0.150041 2.264
-0.000396983 0.150174 2.266
0.00582035 0.150306 2.268
0.0120221 0.150107 2.265
0.0182717 0.150438 2.27
0.0246026 0.1511 2.28
0.0310289 0.15196 2.293
0.0375588 0.152953 2.308
0.0440947 0.153681 2.319
0.0507778 0.154673 2.334
0.0574694 0.155467 2.346
0.0642811 0.156392 2.36
0.0705396 0.155926 2.353
0.0766613 0.155261 2.343
0.0826925 0.154529 2.332
0.0888922 0.154195 2.327
0.0953916 0.154391 2.33
0.101732 0.154321 2.329
0.108578 0.15498 2.339
0.115134 0.155175 2.342
0.121757 0.155436 2.346
0.128129 0.155366 2.345
0.13461 0.155428 2.346
0.141516 0.155953 2.354
0.149094 0.157141 2.372
-0.361376 0.149375 2.356
-0.353297 0.148687 2.345
-0.345129 0.147936 2.333
-0.338042 0.147629 2.328
-0.331123 0.147385 2.324
-0.325064 0.147521 2.326
-0.318855 0.147594 2.327
-0.312908 0.147794 2.33
-0.306944 0.147993 2.333
-0.301478 0.148446 2.34
-0.294964 0.148392 2.339
-0.289811 0.149035 2.349
-0.284965 0.149868 2.362
-0.260997 0.147291 2.321
-0.251693 0.145585 2.294
-0.243818 0.144641 2.279
-0.235608 0.143442 2.26
-0.229024 0.143196 2.256
-0.222164 0.142758 2.249
-0.21563 0.142511 2.245
-0.209023 0.1422 2.24
-0.202534 0.141953 2.236
-0.196241 0.141832 2.234
-0.189618 0.141457 2.228
-0.183604 0.141527 2.229
-0.177504 0.141532 2.229
-0.171096 0.141284 2.225
-0.164709 0.141035 2.221
-0.158557 0.140977 2.22
-0.152067 0.140601 2.214
-0.145609 0.140225 2.208
-0.139563 0.140229 2.208
-0.133637 0.14036 2.21
-0.127988 0.140809 2.217
-0.121915 0.140813 2.217
-0.116208 0.141262 2.224
-0.110066 0.141202 2.223
-0.104162 0.141459 2.227
-0.097972 0.141336 2.225
-0.0918339 0.141275 2.224
-0.0857008 0.141215 2.223
-0.079716 0.141408 2.226
-0.0735823 0.141347 2.225
-0.0674537 0.141286 2.224
-0.0613027 0.141161 2.222
-0.0552369 0.141226 2.223
-0.0491876 0.141355 2.225
-0.0431851 0.141674 2.23
-0.0370886 0.141739 2.231
-0.0309726 0.14174 2.231
-0.0248675 0.141805 2.232
-0.0188241 0.142377 2.241
-0.0127482 0.14314 2.253
-0.00660065 0.143776 2.263
-0.000398048 0.144348 2.272
0.00583337 0.144411 2.273
0.0120649 0.144411 2.273
0.0182723 0.14422 2.27
0.024625 0.144981 2.282
0.0310028 0.145552 2.291
0.0375112 0.14644 2.305
0.0440392 0.147138 2.316
0.0507578 0.148216 2.333
0.0576428 0.149485 2.353
0.0644194 0.150246 2.365
0.0707818 0.149989 2.361
0.0768275 0.149161 2.348
0.0827662 0.148269 2.334
0.0890861 0.148139 2.332
0.0954767 0.148136 2.332
0.101911 0.148197 2.333
0.108674 0.148701 2.341
0.115334 0.149015 2.346
0.121761 0.149011 2.346
0.128133 0.148944 2.345
0.134499 0.148876 2.344
0.141701 0.149697 2.357
0.148659 0.150201 2.365
-0.369368 0.14353 2.366
-0.360619 0.14263 2.351
-0.351801 0.141669 2.335
-0.344251 0.141193 2.327
-0.337761 0.141141 2.326
-0.33156 0.141211 2.327
-0.325073 0.14116 2.326
-0.318316 0.140987 2.323
-0.312783 0.14136 2.329
-0.306953 0.141611 2.333
-0.301874 0.142227 2.343
-0.294846 0.141932 2.338
-0.289696 0.142547 2.348
-0.286542 0.144194 2.375
-0.262579 0.14179 2.335
-0.253346 0.140218 2.309
-0.245109 0.139132 2.291
-0.237075 0.138107 2.274
-0.230147 0.137689 2.267
-0.222763 0.136967 2.255
-0.215924 0.136548 2.248
-0.209309 0.136251 2.243
-0.202812 0.136014 2.239
-0.195984 0.135534 2.231
-0.189199 0.135054 2.223
-0.183033 0.134998 2.222
-0.176952 0.135004 2.222
-0.170794 0.134948 2.221
-0.164492 0.134771 2.218
-0.158562 0.134898 2.22
-0.152347 0.134781 2.218
-0.146076 0.134603 2.215
-0.13982 0.134425 2.212
-0.133702 0.134369 2.211
-0.127992 0.134737 2.217
-0.121919 0.134741 2.217
-0.11595 0.134866 2.219
-0.109871 0.13487 2.219
-0.103931 0.135056 2.222
-0.0981073 0.135423 2.228
-0.0919194 0.135305 2.226
-0.0857035 0.135125 2.223
-0.079647 0.135189 2.224
-0.0735516 0.135191 2.224
-0.0673952 0.135072 2.222
-0.0612495 0.134952 2.22
-0.0551642 0.134954 2.22
-0.0491892 0.13526 2.225
-0.0432253 0.135687 2.232
-0.0371729 0.135931 2.236
-0.0310152 0.13581 2.234
-0.0248795 0.135751 2.233
-0.0188499 0.13642 2.244
-0.0127656 0.13715 2.256
-0.00661545 0.13788 2.268
-0.000398236 0.138184 2.273
0.00584383 0.138427 2.277
0.0120919 0.138488 2.278
0.0183534 0.138609 2.28
0.0246906 0.139094 2.288
0.0310715 0.13958 2.296
0.0375287 0.140187 2.306
0.0440786 0.140915 2.318
0.0508899 0.14219 2.339
0.0577917 0.143404 2.359
0.0645304 0.14401 2.369
0.070844 0.143643 2.363
0.0770263 0.143094 2.354
0.083088 0.142423 2.343
0.0892418 0.141994 2.336
0.0956435 0.141991 2.336
0.101914 0.141806 2.333
0.108678 0.142289 2.341
0.115239 0.142468 2.344
0.121817 0.142647 2.347
0.128465 0.142886 2.351
0.134848 0.142821 2.35
0.141705 0.143242 2.357
0.148663 0.143724 2.365
-0.368597 0.136771 2.361
-0.360015 0.135969 2.347
-0.351659 0.135225 2.334
-0.344852 0.135061 2.331
-0.338351 0.135012 2.33
-0.332139 0.135078 2.331
-0.324523 0.134565 2.322
-0.317365 0.134226 2.316
-0.312389 0.134814 2.326
-0.307751 0.135576 2.339
-0.303041 0.136338 2.352
-0.295611 0.135882 2.344
-0.290445 0.13647 2.354
-0.289083 0.138913 2.396
-0.262924 0.135573 2.338
-0.255218 0.134884 2.326
-0.245972 0.133326 2.299
-0.238124 0.132462 2.284
-0.230662 0.131773 2.272
-0.222869 0.130852 2.256
-0.215835 0.130336 2.247
-0.209129 0.129994 2.241
-0.202637 0.129768 2.237
-0.196077 0.129483 2.232
-0.189289 0.129025 2.224
-0.183039 0.128914 2.222
-0.176719 0.128745 2.219
-0.170876 0.128924 2.222
-0.164645 0.128813 2.22
-0.15871 0.128934 2.222
-0.15242 0.128764 2.219
-0.146146 0.128595 2.216
-0.139888 0.128425 2.213
-0.133947 0.128545 2.215
-0.128285 0.128955 2.222
-0.122143 0.128901 2.221
-0.115849 0.128672 2.217
-0.109379 0.128211 2.209
-0.103654 0.128621 2.216
-0.0979341 0.129088 2.224
-0.0919222 0.129207 2.226
-0.085629 0.128919 2.221
-0.0794704 0.128806 2.219
-0.0734877 0.128982 2.222
-0.0673972 0.128984 2.222
-0.0613065 0.128986 2.222
-0.0552156 0.128988 2.222
-0.0491686 0.129106 2.224
-0.0432072 0.129513 2.231
-0.0371741 0.129805 2.236
-0.0310578 0.129864 2.237
-0.0249471 0.129981 2.239
-0.0188505 0.130272 2.244
-0.0127603 0.130911 2.255
-0.00659815 0.131317 2.262
-0.000397022 0.13155 2.266
0.00581577 0.13155 2.266
0.0120445 0.131724 2.269
0.018362 0.13242 2.281
0.0247561 0.133174 2.294
0.0311536 0.133637 2.302
0.0374973 0.133752 2.304
0.0439849 0.134274 2.313
0.0507174 0.135317 2.331
0.0578179 0.136999 2.36
0.0645869 0.137636 2.371
0.0709661 0.137402 2.367
0.0771923 0.136935 2.359
0.0831614 0.13612 2.345
0.0893209 0.135711 2.338
0.0955645 0.135476 2.334
0.102179 0.135763 2.339
0.108728 0.135934 2.342
0.115292 0.136105 2.345
0.121873 0.136276 2.348
0.128524 0.136504 2.352
0.134909 0.136442 2.351
0.141469 0.136554 2.353
0.148479 0.137072 2.362
0.157769 0.139563 2.405
-0.370792 0.131087 2.375
-0.360791 0.129827 2.352
-0.351969 0.128953 2.336
-0.344713 0.12863 2.33
-0.338795 0.128804 2.333
-0.332717 0.128923 2.335
-0.32537 0.128545 2.328
-0.317922 0.128111 2.32
-0.312531 0.128506 2.327
-0.307891 0.129232 2.34
-0.302663 0.129737 2.349
-0.295998 0.129634 2.347
-0.291686 0.130581 2.364
-0.255006 0.128407 2.324
-0.246835 0.127474 2.307
-0.238444 0.126376 2.287
-0.230566 0.125498 2.271
-0.222875 0.124675 2.256
-0.216129 0.12435 2.25
-0.209321 0.123968 2.243
-0.202733 0.123698 2.238
-0.195819 0.123206 2.229
-0.189635 0.123156 2.228
-0.183456 0.123106 2.227
-0.177201 0.123 2.225
-0.171034 0.12295 2.224
-0.164575 0.122678 2.219
-0.158572 0.122738 2.22
-0.152081 0.12241 2.214
-0.146216 0.12258 2.217
-0.140144 0.122584 2.217
-0.134314 0.122809 2.221
-0.128288 0.122868 2.222
-0.121981 0.122651 2.218
-0.115487 0.122212 2.21
-0.109382 0.12216 2.209
-0.103704 0.122605 2.217
-0.0982452 0.123382 2.231
-0.0920075 0.123219 2.228
-0.0856315 0.122834 2.221
-0.0792936 0.12245 2.214
-0.0732583 0.122507 2.215
-0.0672476 0.12262 2.217
-0.0612256 0.122732 2.219
-0.0552172 0.1229 2.222
-0.0491258 0.122901 2.222
-0.0431117 0.123124 2.226
-0.0371253 0.123512 2.233
-0.0310726 0.12379 2.238
-0.0250035 0.124122 2.244
-0.0188678 0.124234 2.246
-0.0127437 0.124566 2.252
-0.00658376 0.124843 2.257
-0.000395456 0.124843 2.257
0.00580568 0.125119 2.262
0.0120554 0.125617 2.271
0.018435 0.126667 2.29
0.0247352 0.126777 2.292
0.0310869 0.127053 2.297
0.0373845 0.127052 2.297
0.0438911 0.127659 2.308
0.0505884 0.128598 2.325
0.0575746 0.12998 2.35
0.0645615 0.131084 2.37
0.0709082 0.130806 2.365
0.0771618 0.130416 2.358
0.0832348 0.129806 2.347
0.0894382 0.129471 2.341
0.0958539 0.129469 2.341
0.102488 0.129742 2.346
0.108824 0.129629 2.344
0.11505 0.129404 2.34
0.121617 0.129567 2.343
0.128145 0.129674 2.345
0.134511 0.129615 2.344
0.140872 0.129556 2.343
0.148106 0.130271 2.356
0.157117 0.132423 2.395
-0.369552 0.124173 2.367
-0.360493 0.12329 2.35
-0.351677 0.122459 2.334
-0.344721 0.122257 2.33
-0.338804 0.122423 2.333
-0.333153 0.122693 2.338
-0.325937 0.122386 2.332
-0.3193 0.122289 2.33
-0.313614 0.122559 2.335
-0.308293 0.122987 2.343
-0.302542 0.123257 2.348
-0.296636 0.123474 2.352
-0.293298 0.124794 2.377
-0.25589 0.122465 2.332
-0.246521 0.121001 2.304
-0.238241 0.12001 2.285
-0.230674 0.119333 2.272
-0.223572 0.118866 2.263
-0.217383 0.118872 2.263
-0.21054 0.11851 2.256
-0.203463 0.11799 2.246
-0.196527 0.117522 2.237
-0.190066 0.117317 2.233
-0.184202 0.117479 2.236
-0.178162 0.117537 2.237
-0.172116 0.117594 2.238
-0.165618 0.117336 2.233
-0.159147 0.117077 2.228
-0.152016 0.116293 2.213
-0.145824 0.116192 2.211
-0.139895 0.116301 2.213
-0.134439 0.11683 2.223
-0.128465 0.116939 2.225
-0.12215 0.116732 2.221
-0.115751 0.11642 2.215
-0.109484 0.116213 2.211
-0.103753 0.116583 2.218
-0.0979837 0.116954 2.225
-0.0917209 0.116746 2.221
-0.085364 0.116381 2.214
-0.0792242 0.116278 2.212
-0.0733265 0.116543 2.217
-0.0674011 0.116808 2.222
-0.0613376 0.116862 2.223
-0.0552684 0.116916 2.224
-0.0491493 0.116865 2.223
-0.0430935 0.116971 2.225
-0.0370931 0.117288 2.231
-0.0310735 0.117657 2.238
-0.0250265 0.118078 2.246
-0.0188432 0.117921 2.243
-0.0127215 0.118184 2.248
-0.00657811 0.118553 2.255
-0.000395468 0.118658 2.257
0.00580841 0.118973 2.263
0.0120611 0.119446 2.272
0.0184194 0.120287 2.288
0.0247251 0.120444 2.291
0.0310607 0.120654 2.295
0.037353 0.120653 2.295
0.0438543 0.12123 2.306
0.0505463 0.122122 2.323
0.0576498 0.123698 2.353
0.0646451 0.124748 2.373
0.0711201 0.124693 2.372
0.0772949 0.124165 2.362
0.0834145 0.123638 2.352
0.0895935 0.123267 2.345
0.0959385 0.12316 2.343
0.102796 0.123683 2.353
0.109059 0.123469 2.349
0.115299 0.123256 2.345
0.121568 0.123095 2.342
0.12793 0.123039 2.341
0.134343 0.123036 2.341
0.140695 0.12298 2.34
0.147985 0.123712 2.354
0.155613 0.124653 2.372
-0.368155 0.117252 2.358
-0.359735 0.116614 2.345
-0.351835 0.116124 2.335
-0.345321 0.116082 2.334
-0.339102 0.11614 2.335
-0.333303 0.116347 2.339
-0.326504 0.116205 2.336
-0.320404 0.116312 2.338
-0.314561 0.116518 2.342
-0.308564 0.116675 2.345
-0.302678 0.116881 2.349
-0.297273 0.117286 2.357
-0.293799 0.118487 2.381
-0.256007 0.116131 2.333
-0.247169 0.114992 2.31
-0.23856 0.113903 2.288
-0.231594 0.11356 2.281
-0.224961 0.113367 2.277
-0.218542 0.113272 2.275
-0.211386 0.11278 2.265
-0.204646 0.112486 2.259
-0.197411 0.111894 2.247
-0.190667 0.11155 2.24
-0.184372 0.111455 2.238
-0.178246 0.111459 2.238
-0.171889 0.111314 2.235
-0.165474 0.111119 2.231
-0.159223 0.111024 2.229
-0.152432 0.11053 2.219
-0.146092 0.110334 2.215
-0.139962 0.110288 2.214
-0.134261 0.11059 2.22
-0.128064 0.110494 2.218
-0.121768 0.110298 2.214
-0.115389 0.110002 2.208
-0.109388 0.110055 2.209
-0.103663 0.110406 2.216
-0.0979863 0.110857 2.225
-0.0916821 0.110611 2.22
-0.0854819 0.110464 2.217
-0.0792263 0.110217 2.212
-0.0732954 0.110418 2.216
-0.0672816 0.110519 2.218
-0.0613117 0.11072 2.222
-0.0553196 0.110921 2.226
-0.0492833 0.111072 2.229
-0.0432109 0.111173 2.231
-0.0370774 0.111124 2.23
-0.0310049 0.111274 2.233
-0.0249158 0.111425 2.236
-0.0188353 0.111724 2.242
-0.0127161 0.111974 2.247
-0.00657537 0.112323 2.254
-0.000396179 0.112672 2.261
0.00582653 0.11312 2.27
0.012088 0.113469 2.277
0.018436 0.114116 2.29
0.024715 0.114116 2.29
0.0310751 0.114414 2.296
0.0373865 0.114463 2.297
0.0439315 0.11511 2.31
0.0506782 0.116055 2.329
0.0577003 0.117349 2.355
0.064674 0.118295 2.374
0.0709721 0.117944 2.367
0.0772642 0.117643 2.361
0.0834521 0.117242 2.353
0.0895576 0.116792 2.344
0.0960229 0.116839 2.345
0.102581 0.116986 2.348
0.108922 0.116884 2.346
0.115056 0.116582 2.34
0.121312 0.116429 2.337
0.127715 0.116426 2.337
0.134461 0.116722 2.343
0.14124 0.117017 2.349
0.148177 0.117412 2.357
0.155879 0.118355 2.376
-0.36707 0.110474 2.351
-0.359282 0.110059 2.342
-0.351994 0.109784 2.336
-0.345181 0.109651 2.333
-0.338528 0.109564 2.331
-0.332456 0.109665 2.333
-0.325952 0.109625 2.332
-0.320822 0.110055 2.341
-0.314971 0.11025 2.345
-0.309097 0.110445 2.349
-0.303845 0.110875 2.358
-0.298415 0.111258 2.366
-0.295039 0.11244 2.391
-0.256342 0.109885 2.336
-0.247389 0.108762 2.312
-0.238878 0.107779 2.291
-0.232107 0.107549 2.286
-0.224966 0.107131 2.277
-0.218643 0.107089 2.276
-0.211857 0.106812 2.27
-0.204922 0.10644 2.262
-0.197855 0.105975 2.252
-0.190927 0.105556 2.243
-0.18487 0.105607 2.244
-0.178171 0.105282 2.237
-0.171663 0.105051 2.232
-0.165552 0.105055 2.232
-0.159513 0.105106 2.233
-0.152986 0.104827 2.227
-0.146096 0.104266 2.215
-0.140029 0.104269 2.215
-0.134143 0.104414 2.218
-0.128125 0.104464 2.219
-0.121771 0.104232 2.214
-0.115444 0.103999 2.209
-0.109589 0.10419 2.213
-0.103618 0.104287 2.215
-0.0980328 0.104807 2.226
-0.0918909 0.104763 2.225
-0.0858311 0.104812 2.226
-0.0796223 0.104673 2.223
-0.073628 0.104816 2.226
-0.0674956 0.10477 2.225
-0.0614512 0.104866 2.227
-0.0553956 0.104962 2.229
-0.0494614 0.10534 2.237
-0.0434444 0.105623 2.243
-0.0372613 0.10553 2.241
-0.0310751 0.10539 2.238
-0.0249275 0.105343 2.237
-0.0188273 0.105532 2.241
-0.0127051 0.105721 2.245
-0.00657553 0.106145 2.254
-0.000396539 0.106569 2.263
0.00584208 0.107181 2.276
0.0121042 0.107369 2.28
0.0184445 0.107887 2.291
0.024802 0.108216 2.298
0.0311841 0.108498 2.304
0.0375014 0.108497 2.304
0.0440658 0.109108 2.317
0.0508535 0.110049 2.337
0.0576283 0.110754 2.352
0.0645122 0.111506 2.368
0.070794 0.111175 2.361
0.0772007 0.111079 2.359
0.0835606 0.110935 2.356
0.0897891 0.110651 2.35
0.0961892 0.110601 2.349
0.102496 0.110458 2.346
0.108739 0.110267 2.342
0.11496 0.110076 2.338
0.121419 0.11012 2.339
0.127936 0.110211 2.341
0.134809 0.110584 2.349
0.141665 0.110911 2.356
0.148495 0.11119 2.362
0.155489 0.111563 2.37
-0.366297 0.103822 2.346
-0.35929 0.103652 2.342
-0.352453 0.103527 2.339
-0.345336 0.103312 2.334
-0.338971 0.103319 2.334
-0.332748 0.10337 2.335
-0.326657 0.103466 2.337
-0.321103 0.103738 2.343
-0.31565 0.104054 2.35
-0.30963 0.104194 2.353
-0.304109 0.10451 2.36
-0.298548 0.104826 2.367
-0.295539 0.106073 2.395
-0.256677 0.103622 2.339
-0.247287 0.102387 2.311
-0.239614 0.101816 2.298
-0.232518 0.101467 2.29
-0.225663 0.101206 2.284
-0.218648 0.100856 2.276
-0.211769 0.100551 2.269
-0.204837 0.100201 2.261
-0.198211 0.0999835 2.256
-0.191186 0.0995447 2.246
-0.18471 0.0993716 2.242
-0.177856 0.0989767 2.233
-0.171359 0.098759 2.228
-0.165259 0.0987628 2.228
-0.159302 0.0988551 2.23
-0.153195 0.0988586 2.23
-0.146429 0.0984186 2.22
-0.140348 0.0984219 2.22
-0.134086 0.098292 2.217
-0.12807 0.0983393 2.218
-0.121829 0.0982092 2.215
-0.115551 0.0980345 2.211
-0.109641 0.0981701 2.214
-0.103761 0.0983499 2.218
-0.0982994 0.098973 2.232
-0.0924299 0.0992413 2.238
-0.0862959 0.0992434 2.238
-0.0799823 0.0990236 2.233
-0.0738282 0.098981 2.232
-0.0676186 0.0988496 2.229
-0.0614803 0.0988067 2.228
-0.0553472 0.0987637 2.227
-0.0493741 0.099031 2.233
-0.0433486 0.0992539 2.238
-0.0372622 0.0993878 2.241
-0.0311036 0.0993443 2.24
-0.0249727 0.0993893 2.241
-0.0188698 0.0996115 2.246
-0.0127337 0.0997893 2.25
-0.00658153 0.100056 2.256
-0.000395848 0.100189 2.259
0.00582939 0.100721 2.271
0.0120886 0.100987 2.277
0.0184208 0.101474 2.288
0.024781 0.101829 2.296
0.0311443 0.10205 2.301
0.0375349 0.102271 2.306
0.0440858 0.102802 2.318
0.0507242 0.103377 2.331
0.0574581 0.103997 2.345
0.0640506 0.104262 2.351
0.0707357 0.104615 2.359
0.077268 0.104702 2.361
0.0835981 0.104523 2.357
0.0898677 0.104299 2.352
0.0961914 0.104164 2.349
0.102367 0.103895 2.343
0.108649 0.10376 2.34
0.114865 0.10358 2.336
0.121214 0.103533 2.335
0.127721 0.103619 2.337
0.134525 0.103926 2.344
0.141728 0.104499 2.357
0.14831 0.104585 2.359
0.15523 0.104892 2.366
-0.365367 0.0971557 2.34
-0.358376 0.0969964 2.336
-0.351857 0.0969615 2.335
-0.345343 0.0969266 2.334
-0.339704 0.0971408 2.339
-0.333324 0.0971472 2.339
-0.327363 0.0972781 2.342
-0.321384 0.097409 2.345
-0.316462 0.0978722 2.356
-0.310163 0.0979198 2.357
-0.304373 0.0981336 2.362
-0.298932 0.0984719 2.37
-0.29752 0.100181 2.411
-0.256024 0.0969676 2.333
-0.247934 0.0963077 2.317
-0.239932 0.0956476 2.301
-0.233234 0.0954861 2.297
-0.226359 0.0952414 2.291
-0.219517 0.0949966 2.285
-0.212333 0.0945853 2.275
-0.205022 0.0940907 2.263
-0.197952 0.0936791 2.253
-0.191276 0.0934336 2.247
-0.184961 0.0933544 2.245
-0.178498 0.0931919 2.241
-0.171978 0.0929876 2.236
-0.165708 0.092908 2.234
-0.159591 0.0929115 2.234
-0.153336 0.0928316 2.232
-0.146762 0.0925437 2.225
-0.140604 0.0925051 2.224
-0.134331 0.0923833 2.221
-0.128304 0.0924277 2.222
-0.122217 0.0924304 2.222
-0.115919 0.0922665 2.218
-0.109792 0.0922273 2.217
-0.103764 0.0922713 2.218
-0.0982575 0.0928142 2.231
-0.0923907 0.0930659 2.237
-0.086105 0.0929014 2.233
-0.0800558 0.0929864 2.235
-0.073896 0.0929465 2.234
-0.0677414 0.0929064 2.233
-0.061454 0.0926582 2.227
-0.0553236 0.0926179 2.226
-0.0493089 0.0927854 2.23
-0.0432721 0.0929529 2.234
-0.0372298 0.0931618 2.239
-0.0311599 0.0933706 2.244
-0.0250178 0.0934128 2.245
-0.0188786 0.0934965 2.247
-0.0127454 0.0937049 2.252
-0.00660501 0.0942044 2.264
-0.000397785 0.0944542 2.27
0.00583722 0.0946206 2.274
0.0121048 0.09487 2.28
0.0184132 0.095161 2.287
0.0247815 0.095535 2.296
0.0311314 0.0957008 2.3
0.0376659 0.0962826 2.314
0.0441819 0.0966562 2.323
0.0507036 0.0969464 2.33
0.0571654 0.09707 2.333
0.064161 0.097984 2.355
0.0708872 0.0983571 2.364
0.0774006 0.098397 2.365
0.0836354 0.0981041 2.358
0.0900225 0.098019 2.356
0.0964393 0.0979753 2.355
0.102806 0.09789 2.353
0.10893 0.0975965 2.346
0.115162 0.0974277 2.342
0.121424 0.0973003 2.339
0.128051 0.097464 2.343
0.1347 0.0976276 2.347
0.141491 0.0978742 2.353
0.147559 0.0976216 2.347
0.154315 0.0978263 2.352
0.163081 0.0992371 2.386
-0.364281 0.0904831 2.333
-0.357002 0.0902567 2.327
-0.351562 0.0904956 2.333
-0.345497 0.0905794 2.335
-0.339856 0.0907794 2.34
-0.333331 0.0907467 2.339
-0.328208 0.0911018 2.348
-0.322212 0.0912241 2.351
-0.317005 0.0915791 2.36
-0.310432 0.091546 2.359
-0.304765 0.0917845 2.365
-0.300073 0.0923335 2.379
-0.25559 0.0904237 2.329
-0.247939 0.0899625 2.317
-0.240666 0.0896177 2.308
-0.233543 0.0893116 2.3
-0.226858 0.0891607 2.296
-0.220002 0.088932 2.29
-0.212898 0.0885867 2.281
-0.20557 0.0881247 2.269
-0.198571 0.0877791 2.26
-0.19162 0.0874333 2.251
-0.185047 0.0872428 2.246
-0.17882 0.0872075 2.245
-0.172366 0.0870556 2.241
-0.166231 0.0870589 2.241
-0.159666 0.086829 2.235
-0.153408 0.0867544 2.233
-0.146699 0.0864078 2.224
-0.140418 0.086294 2.221
-0.134213 0.0862191 2.219
-0.128191 0.0862606 2.22
-0.122329 0.0864185 2.224
-0.116026 0.0862655 2.22
-0.109596 0.0859957 2.213
-0.103719 0.0861533 2.217
-0.0982155 0.0866605 2.23
-0.09231 0.0868568 2.235
-0.0858369 0.0865088 2.226
-0.0796634 0.0864328 2.224
-0.0736329 0.086512 2.226
-0.0675608 0.0865523 2.227
-0.0615381 0.0866702 2.23
-0.0554241 0.0866714 2.23
-0.0493099 0.0866725 2.23
-0.0431568 0.0865957 2.228
-0.0371142 0.086752 2.232
-0.0310494 0.0869082 2.236
-0.0249738 0.0871031 2.241
-0.0188538 0.0872201 2.244
-0.0127456 0.0875314 2.252
-0.00661099 0.0880758 2.266
-0.000397618 0.0881924 2.269
0.00583221 0.088309 2.272
0.0120891 0.0885031 2.277
0.0183975 0.0888138 2.285
0.0247497 0.0891243 2.293
0.0311186 0.0893569 2.299
0.0376667 0.0899392 2.314
0.0442209 0.0903659 2.325
0.0505741 0.0903261 2.324
0.0570686 0.0905193 2.329
0.0639989 0.0912954 2.349
0.0710986 0.0921491 2.371
0.0774677 0.0919921 2.367
0.0835662 0.091563 2.356
0.0899862 0.0915224 2.355
0.0963594 0.0914427 2.353
0.103027 0.091635 2.358
0.109443 0.091594 2.357
0.115804 0.091514 2.355
0.121738 0.0911231 2.345
0.128218 0.0911594 2.346
0.134588 0.0911179 2.345
0.141313 0.0913094 2.35
0.146933 0.0908015 2.337
0.153662 0.0909927 2.342
0.16158 0.0918443 2.364
-0.364756 0.0842089 2.336
-0.357161 0.0839264 2.328
-0.351267 0.0840403 2.331
-0.345207 0.0841182 2.333
-0.338845 0.0841238 2.333
-0.333051 0.0842737 2.337
-0.328074 0.0846398 2.347
-0.322492 0.0848617 2.353
-0.316339 0.0849392 2.355
-0.310306 0.0850527 2.358
-0.304899 0.0853466 2.366
-0.301214 0.0861454 2.388
-0.255704 0.0840818 2.33
-0.248372 0.0837614 2.321
-0.240671 0.0832966 2.308
-0.233446 0.082976 2.299
-0.226171 0.0826192 2.289
-0.220006 0.0826593 2.29
-0.213275 0.0824827 2.285
-0.206299 0.0821977 2.277
-0.199277 0.0818764 2.268
-0.19273 0.0817356 2.264
-0.185627 0.0813419 2.253
-0.179221 0.0812369 2.25
-0.17237 0.0809152 2.241
-0.166308 0.0809544 2.242
-0.15974 0.0807407 2.236
-0.153411 0.0806353 2.233
-0.146899 0.0804214 2.227
-0.140673 0.0803518 2.225
-0.134518 0.0803183 2.224
-0.127963 0.0800318 2.216
-0.122056 0.0801425 2.219
-0.115819 0.0800364 2.216
-0.109846 0.0801107 2.218
-0.103815 0.0801488 2.219
-0.0980853 0.0804397 2.227
-0.0921466 0.080586 2.231
-0.0858771 0.0804432 2.227
-0.0795934 0.0802641 2.222
-0.0735682 0.0803378 2.224
-0.0675015 0.0803753 2.225
-0.0615117 0.080521 2.229
-0.0554998 0.0806666 2.233
-0.0494436 0.0807759 2.236
-0.0433513 0.0808491 2.238
-0.037198 0.0808137 2.237
-0.0310639 0.0808144 2.237
-0.024952 0.0808871 2.239
-0.018871 0.0811405 2.246
-0.0127629 0.0814659 2.255
-0.00661987 0.0819719 2.269
-0.000398502 0.0821526 2.274
0.00586056 0.0824776 2.283
0.012169 0.0828026 2.292
0.0184784 0.0829107 2.295
0.0248041 0.0830187 2.298
0.0311462 0.0831265 2.301
0.0376675 0.0835955 2.314
0.0441647 0.0838837 2.322
0.0506186 0.0840273 2.326
0.0570942 0.0841708 2.33
0.0638094 0.0846032 2.342
0.07101 0.0855411 2.368
0.0774037 0.0854313 2.365
0.0834969 0.0850325 2.354
0.0899116 0.0849947 2.353
0.0963203 0.0849568 2.352
0.103029 0.0851717 2.358
0.109538 0.0852058 2.359
0.116101 0.0852759 2.361
0.122208 0.0850209 2.354
0.128439 0.0848741 2.35
0.134476 0.0846188 2.343
0.141075 0.0847246 2.346
0.146999 0.084433 2.338
0.1536 0.0845385 2.341
0.160763 0.0849329 2.352
-0.37637 0.0789118 2.369
-0.366323 0.0781512 2.346
-0.358548 0.0778568 2.337
-0.352327 0.0778955 2.338
-0.345361 0.0777676 2.334
-0.33856 0.0776728 2.331
-0.333057 0.077878 2.337
-0.328079 0.0782163 2.347
-0.322634 0.0784547 2.354
-0.315941 0.078393 2.352
-0.310442 0.0786313 2.359
-0.305162 0.0789361 2.368
-0.301724 0.079741 2.392
-0.256367 0.0779008 2.336
-0.248269 0.0773713 2.32
-0.240258 0.0768417 2.304
-0.233044 0.0765454 2.295
-0.226076 0.0763157 2.288
-0.220298 0.0764862 2.293
-0.213185 0.0761896 2.284
-0.206211 0.0759262 2.276
-0.199544 0.0757628 2.271
-0.193244 0.0757328 2.27
-0.186125 0.075369 2.259
-0.179145 0.0750384 2.249
-0.172603 0.0748746 2.244
-0.166459 0.0748774 2.244
-0.159815 0.0746466 2.237
-0.153482 0.0745492 2.234
-0.147166 0.0744517 2.231
-0.140929 0.0743874 2.229
-0.13452 0.0742229 2.224
-0.127907 0.0739248 2.215
-0.121894 0.0739603 2.216
-0.116083 0.0741293 2.221
-0.110294 0.0743315 2.227
-0.104237 0.0743667 2.228
-0.0983954 0.0745687 2.234
-0.0922722 0.0745704 2.234
-0.0861101 0.0745386 2.233
-0.0796664 0.0742396 2.224
-0.0738011 0.0744746 2.231
-0.0675937 0.0743757 2.228
-0.0616232 0.0745437 2.233
-0.055476 0.0745114 2.232
-0.0494666 0.0746792 2.237
-0.0433715 0.0747468 2.239
-0.0372486 0.0747809 2.24
-0.0311478 0.0748817 2.243
-0.0250305 0.0749823 2.246
-0.0189386 0.0752498 2.254
-0.012797 0.0754837 2.261
-0.00662291 0.0757844 2.27
-0.000398334 0.0758846 2.273
0.00585554 0.0761516 2.281
0.0121426 0.0763518 2.287
0.0184787 0.0766186 2.295
0.024783 0.0766516 2.296
0.0310927 0.0766845 2.297
0.0375379 0.0769843 2.306
0.0441465 0.0774844 2.321
0.0507066 0.077784 2.33
0.0572423 0.0779834 2.336
0.0637016 0.0780491 2.338
0.0711913 0.0792497 2.374
0.0776343 0.0791816 2.372
0.0839241 0.0789799 2.366
0.0901807 0.0787781 2.36
0.0964449 0.0786096 2.355
0.102769 0.0785077 2.352
0.109308 0.0785726 2.354
0.115612 0.0784705 2.351
0.122106 0.0785018 2.352
0.128442 0.0784329 2.35
0.134421 0.0781637 2.342
0.140898 0.0781947 2.343
0.147064 0.0780587 2.339
0.154062 0.0783565 2.348
0.161039 0.0786207 2.356
-0.375581 0.072278 2.364
-0.366796 0.0718244 2.349
-0.359473 0.071646 2.343
-0.352785 0.0715898 2.341
-0.345958 0.0715029 2.338
-0.339146 0.071416 2.335
-0.333917 0.0716655 2.343
-0.328783 0.0719455 2.352
-0.323324 0.0721643 2.359
-0.316618 0.0721077 2.357
-0.310579 0.072204 2.36
-0.305424 0.0725144 2.37
-0.303494 0.0736204 2.406
-0.265005 0.0721112 2.356
-0.25659 0.0715641 2.338
-0.248059 0.0709557 2.318
-0.240366 0.0705615 2.305
-0.233758 0.0704732 2.302
-0.226771 0.0702624 2.295
-0.220686 0.0703271 2.297
-0.213282 0.069963 2.285
-0.206668 0.0698437 2.281
-0.199811 0.0696325 2.274
-0.193588 0.0696355 2.274
-0.18621 0.0692097 2.26
-0.179466 0.0689982 2.253
-0.172991 0.0688784 2.249
-0.166536 0.0687586 2.245
-0.159889 0.0685467 2.238
-0.153485 0.0684267 2.234
-0.147366 0.0684291 2.234
-0.141247 0.0684313 2.234
-0.134946 0.0683416 2.231
-0.128141 0.0679761 2.219
-0.122226 0.06807 2.222
-0.116242 0.0681331 2.224
-0.110543 0.06838 2.232
-0.104286 0.0682898 2.229
-0.0982209 0.0683221 2.23
-0.0921498 0.0683542 2.231
-0.0861501 0.0684476 2.234
-0.0801335 0.0685408 2.237
-0.0741993 0.0687259 2.243
-0.0679286 0.0686045 2.239
-0.0616795 0.068483 2.235
-0.0555017 0.0684226 2.233
-0.0494453 0.0685154 2.236
-0.0433335 0.0685468 2.237
-0.0372326 0.0686087 2.239
-0.0311067 0.0686399 2.24
-0.0250755 0.0689468 2.25
-0.0189725 0.0691923 2.258
-0.0128482 0.0695603 2.27
-0.00664345 0.069775 2.277
-0.000399392 0.0698363 2.279
0.00586333 0.0699895 2.284
0.0121694 0.0702345 2.292
0.0185112 0.0704487 2.299
0.0248374 0.0705097 2.301
0.0311067 0.0704173 2.298
0.0375548 0.0706925 2.307
0.0442233 0.0712434 2.325
0.0508598 0.0716104 2.337
0.0572432 0.0715789 2.336
0.0636754 0.0716085 2.337
0.0776028 0.072648 2.371
0.08389 0.0724629 2.365
0.0901822 0.0723083 2.36
0.0965284 0.0722149 2.357
0.102552 0.0719069 2.347
0.108752 0.071752 2.342
0.114925 0.0715971 2.337
0.121589 0.0717484 2.342
0.12817 0.0718383 2.345
0.134309 0.071683 2.34
0.140599 0.0716196 2.338
0.147193 0.0717092 2.341
0.154064 0.0719213 2.348
0.16111 0.0721945 2.357
-0.373997 0.065532 2.354
-0.366333 0.065314 2.346
-0.360092 0.0653464 2.347
-0.353995 0.0654066 2.349
-0.346702 0.065244 2.343
-0.339586 0.0651092 2.338
-0.333494 0.0651692 2.34
-0.328787 0.0655077 2.352
-0.323329 0.0657069 2.359
-0.317159 0.0657668 2.361
-0.310715 0.065771 2.361
-0.306202 0.0661929 2.376
-0.264672 0.065575 2.353
-0.256155 0.0650491 2.334
-0.247741 0.064523 2.315
-0.240473 0.0642755 2.306
-0.234269 0.0643066 2.307
-0.227565 0.0641983 2.303
-0.221169 0.0641736 2.302
-0.213005 0.063619 2.282
-0.20649 0.0635383 2.279
-0.199551 0.0633181 2.271
-0.193506 0.0633766 2.273
-0.186131 0.062989 2.259
-0.179549 0.0628521 2.254
-0.173455 0.0628825 2.255
-0.166984 0.0627734 2.251
-0.16032 0.0625805 2.244
-0.153693 0.0623875 2.237
-0.1475 0.0623618 2.236
-0.141059 0.0622244 2.231
-0.134827 0.0621706 2.229
-0.128547 0.0620889 2.226
-0.122778 0.062258 2.232
-0.116662 0.0622598 2.232
-0.110446 0.0622056 2.23
-0.104288 0.0621793 2.229
-0.0983545 0.0622923 2.233
-0.0923578 0.0623774 2.236
-0.0863442 0.0624624 2.239
-0.0803855 0.0626031 2.244
-0.0742997 0.0626601 2.246
-0.068051 0.0625774 2.243
-0.061846 0.0625226 2.241
-0.0555772 0.0623839 2.236
-0.049424 0.0623568 2.235
-0.043276 0.0623296 2.234
-0.0371833 0.062386 2.236
-0.0310933 0.0624702 2.239
-0.0250424 0.0626938 2.247
-0.0189224 0.0628336 2.252
-0.0128314 0.0632524 2.267
-0.00662896 0.063392 2.272
-0.000399398 0.0635874 2.279
0.00584289 0.0635036 2.276
0.0121112 0.063643 2.281
0.0184873 0.0640613 2.296
0.0248378 0.0642005 2.301
0.0311207 0.0641443 2.299
0.0375229 0.0643112 2.305
0.044224 0.0648686 2.325
0.0508823 0.0652306 2.338
0.0572931 0.0652298 2.338
0.0637854 0.0653126 2.341
0.0709836 0.066037 2.367
0.0778004 0.0663149 2.377
0.0840332 0.0660905 2.369
0.0903364 0.0659498 2.364
0.0968576 0.0659763 2.365
0.102903 0.0656959 2.355
0.109033 0.0654991 2.348
0.114927 0.0651906 2.337
0.121539 0.0653005 2.341
0.128008 0.0653265 2.342
0.134368 0.0652968 2.341
0.140601 0.0652111 2.338
0.147069 0.0652369 2.339
0.153673 0.0653184 2.342
0.160566 0.0655114 2.349
0.169701 0.0665688 2.387
-0.373684 0.0590414 2.352
-0.365713 0.0587945 2.342
-0.359789 0.058874 2.345
-0.353095 0.0588279 2.343
-0.346114 0.0587315 2.339
-0.33959 0.0587103 2.338
-0.33364 0.0587896 2.341
-0.32935 0.0591702 2.356
-0.323744 0.0593247 2.362
-0.317969 0.0594541 2.367
-0.310982 0.0593573 2.363
-0.307108 0.0598634 2.383
-0.264787 0.0591556 2.354
-0.256488 0.0587316 2.337
-0.247852 0.0582069 2.316
-0.241415 0.0581848 2.315
-0.235085 0.0581878 2.315
-0.228161 0.0580399 2.309
-0.220884 0.0577913 2.299
-0.213195 0.057417 2.284
-0.207036 0.0574448 2.285
-0.199729 0.0571456 2.273
-0.193593 0.0571733 2.274
-0.185804 0.056698 2.255
-0.179631 0.0567003 2.255
-0.17338 0.0566774 2.254
-0.167134 0.0566545 2.253
-0.160322 0.0564303 2.244
-0.154039 0.056382 2.242
-0.147898 0.0563839 2.242
-0.141694 0.0563607 2.241
-0.135313 0.0562619 2.237
-0.128895 0.0561378 2.232
-0.122999 0.0562401 2.236
-0.116297 0.055965 2.225
-0.110101 0.0559161 2.223
-0.104055 0.0559427 2.224
-0.0983118 0.0561453 2.232
-0.0924003 0.0562723 2.237
-0.0864225 0.0563741 2.241
-0.0803866 0.0564507 2.244
-0.0743007 0.056502 2.246
-0.068143 0.0565029 2.246
-0.0619297 0.0564535 2.244
-0.0557271 0.056404 2.242
-0.049491 0.056304 2.238
-0.0432573 0.0561788 2.233
-0.0371672 0.0562297 2.235
-0.0310659 0.0562805 2.237
-0.0250428 0.0565324 2.247
-0.0189142 0.0566334 2.251
-0.0128146 0.0569606 2.264
-0.00661155 0.0570111 2.266
-0.000398878 0.0572627 2.276
0.00583013 0.0571369 2.271
0.0120954 0.0573129 2.278
0.0184312 0.0575894 2.289
0.0248489 0.0579162 2.302
0.0312024 0.0579913 2.305
0.0375722 0.0580663 2.308
0.0441485 0.0583929 2.321
0.050796 0.0587193 2.334
0.0572694 0.058794 2.337
0.0639498 0.0590448 2.347
0.0708647 0.0594465 2.363
0.0775724 0.0596216 2.37
0.0836442 0.0593186 2.358
0.0901084 0.0593175 2.358
0.096736 0.0594169 2.362
0.103036 0.0593149 2.358
0.109313 0.0592129 2.354
0.11542 0.0590354 2.347
0.121748 0.0589835 2.345
0.127846 0.058831 2.339
0.134025 0.0587286 2.335
0.140423 0.0587269 2.335
0.147197 0.0588759 2.341
0.153609 0.0588739 2.341
0.160432 0.0590228 2.347
0.169632 0.0600014 2.386
-0.384783 0.053251 2.381
-0.374164 0.0526733 2.355
-0.365717 0.0523863 2.342
-0.359947 0.0524794 2.346
-0.3534 0.0524607 2.345
-0.346414 0.0523748 2.341
-0.339884 0.052356 2.34
-0.333501 0.0523595 2.34
-0.328795 0.0526315 2.352
-0.322925 0.0527244 2.356
-0.317436 0.0528844 2.363
-0.311907 0.0530444 2.37
-0.309947 0.0538311 2.405
-0.265016 0.0527528 2.356
-0.25671 0.052375 2.339
-0.247855 0.0518628 2.316
-0.241209 0.0517983 2.313
-0.234783 0.0517785 2.312
-0.228262 0.0517363 2.31
-0.221079 0.0515372 2.301
-0.21329 0.0511813 2.285
-0.206948 0.0511613 2.284
-0.200083 0.0510068 2.277
-0.193766 0.0509866 2.276
-0.186465 0.0506975 2.263
-0.179872 0.0505876 2.258
-0.173305 0.0504776 2.253
-0.167285 0.0505244 2.255
-0.16061 0.0503694 2.248
-0.154384 0.0503488 2.247
-0.14823 0.0503505 2.247
-0.141948 0.0503074 2.245
-0.135133 0.0500625 2.234
-0.128723 0.049952 2.229
-0.122561 0.049931 2.228
-0.116194 0.0498204 2.223
-0.110053 0.0497993 2.222
-0.10429 0.0499574 2.229
-0.0987095 0.0502276 2.241
-0.0926906 0.0502959 2.244
-0.086385 0.0502073 2.24
-0.0800652 0.0500962 2.235
-0.0739047 0.0500747 2.234
-0.0679314 0.0501876 2.239
-0.061958 0.0503229 2.245
-0.0558521 0.0503684 2.247
-0.0495801 0.050257 2.242
-0.043374 0.0501903 2.239
-0.0372175 0.0501683 2.238
-0.0312052 0.0503705 2.247
-0.0250988 0.0504829 2.252
-0.0189565 0.0505728 2.256
-0.0128091 0.0507299 2.263
-0.00661455 0.0508197 2.267
-0.000399058 0.0510439 2.277
0.00584048 0.0509991 2.275
0.0121221 0.0511783 2.283
0.0184717 0.0514247 2.294
0.0248708 0.0516486 2.304
0.031284 0.0518052 2.311
0.037589 0.05176 2.309
0.044092 0.0519612 2.318
0.0506443 0.0521624 2.327
0.0572701 0.0523859 2.337
0.0640596 0.052699 2.351
0.0711355 0.053169 2.372
0.0840354 0.0530999 2.369
0.0904535 0.053054 2.367
0.0967373 0.0529409 2.362
0.102993 0.0528276 2.357
0.109221 0.0527143 2.352
0.115618 0.0526906 2.351
0.121905 0.052622 2.348
0.128121 0.0525309 2.344
0.134314 0.0524397 2.34
0.140665 0.0524157 2.339
0.147136 0.0524364 2.34
0.153677 0.0524795 2.342
0.160365 0.0525673 2.346
0.168141 0.0529912 2.365
-0.383817 0.046619 2.375
-0.374327 0.0462494 2.356
-0.365876 0.0459975 2.343
-0.359643 0.0460203 2.344
-0.352801 0.0459646 2.341
-0.346417 0.0459678 2.341
-0.340759 0.0460691 2.346
-0.334787 0.0461311 2.349
-0.329497 0.0462912 2.357
-0.323477 0.0463532 2.36
-0.317707 0.0464543 2.365
-0.313094 0.0467323 2.379
-0.265131 0.0463192 2.357
-0.256164 0.0458697 2.334
-0.247857 0.0455184 2.316
-0.241003 0.0454225 2.311
-0.234278 0.0453462 2.307
-0.228067 0.0453681 2.308
-0.221369 0.0452917 2.304
-0.214039 0.0450776 2.293
-0.207403 0.045001 2.289
-0.200436 0.0448458 2.281
-0.194023 0.0448084 2.279
-0.186797 0.0445744 2.267
-0.180193 0.0444779 2.262
-0.173307 0.0443027 2.253
-0.167287 0.0443437 2.255
-0.160754 0.044247 2.25
-0.15473 0.044288 2.252
-0.148429 0.0442502 2.25
-0.14214 0.0442123 2.248
-0.135316 0.0439974 2.237
-0.128551 0.0437824 2.226
-0.122342 0.0437443 2.224
-0.116091 0.0436865 2.221
-0.110351 0.0438254 2.228
-0.104479 0.0439248 2.233
-0.0987546 0.0441029 2.242
-0.0924438 0.0440252 2.238
-0.0862317 0.0439868 2.236
-0.0798511 0.0438499 2.229
-0.0738063 0.0438901 2.231
-0.0678108 0.0439695 2.235
-0.0618483 0.0440882 2.241
-0.0557781 0.0441479 2.244
-0.0496249 0.0441484 2.244
-0.0433745 0.0440505 2.239
-0.0372013 0.0440116 2.237
-0.0312056 0.0442087 2.247
-0.0251548 0.0444057 2.257
-0.0189903 0.044465 2.26
-0.0128093 0.0445242 2.263
-0.00661754 0.0446226 2.268
-0.000399063 0.0447998 2.277
0.00584824 0.0448194 2.278
0.0121435 0.0449964 2.287
0.0184639 0.0451143 2.293
0.0248495 0.0452911 2.302
0.0312979 0.0454876 2.312
0.0376871 0.0455462 2.315
0.0441876 0.0457032 2.323
0.0506666 0.0458011 2.328
0.0573198 0.0460169 2.339
0.0640603 0.0462524 2.351
0.071916 0.0471763 2.398
0.0841073 0.0466436 2.371
0.0905309 0.0466033 2.369
0.0966564 0.0464253 2.36
0.102776 0.0462669 2.352
0.10899 0.0461674 2.347
0.115669 0.0462646 2.352
0.122166 0.0462831 2.353
0.128505 0.0462425 2.351
0.134603 0.0461231 2.345
0.140847 0.0460627 2.342
0.147137 0.0460219 2.34
0.153547 0.0460204 2.34
0.160504 0.0461761 2.348
0.167787 0.0464105 2.36
-0.381396 0.0398676 2.36
-0.373059 0.0396677 2.348
-0.365098 0.0395016 2.338
-0.358726 0.0395044 2.338
-0.352502 0.039524 2.339
-0.346272 0.0395437 2.34
-0.340762 0.0396477 2.346
-0.33479 0.0397011 2.349
-0.328941 0.0397713 2.353
-0.322657 0.0397908 2.354
-0.317441 0.0399455 2.363
-0.314676 0.0404214 2.391
-0.265021 0.0398461 2.356
-0.256496 0.0395269 2.337
-0.248394 0.0392584 2.321
-0.241214 0.0391251 2.313
-0.233975 0.0389749 2.304
-0.227772 0.0389937 2.305
-0.22166 0.0390295 2.307
