# .PCD v.7 - Point Cloud Data file format
VERSION .7
FIELDS x y z
SIZE 4 4 4
TYPE F F F
COUNT 1 1 1
WIDTH 1858
HEIGHT 1
VIEWPOINT 0 0 0 1 0 0 0
POINTS 1858
DATA ascii
0.0680879 0.131829 2.271
0.0745417 0.132233 2.278
0.0809627 0.132521 2.283
0.0877546 0.133331 2.297
0.0946638 0.134199 2.312
0.101961 0.135473 2.334
0.109145 0.136457 2.351
0.115931 0.13686 2.358
0.120004 0.134186 2.312
0.125518 0.133312 2.297
0.130778 0.132264 2.279
0.135938 0.131215 2.261
0.141062 0.130224 2.244
0.146748 0.129814 2.237
0.152873 0.12981 2.237
0.158998 0.129805 2.237
0.164975 0.129684 2.235
0.171093 0.129679 2.235
0.177132 0.129616 2.234
0.18382 0.130017 2.241
0.189953 0.130012 2.241
0.195909 0.12989 2.239
0.200862 0.12913 2.226
0.207788 0.129647 2.235
0.216198 0.131033 2.259
-0.282499 0.138787 2.512
-0.274428 0.138187 2.501
-0.267378 0.138084 2.499
-0.260964 0.138312 2.503
-0.254933 0.138761 2.511
-0.249055 0.13932 2.521
-0.24168 0.13905 2.516
-0.233772 0.138449 2.505
-0.224745 0.137129 2.481
-0.212775 0.133874 2.422
-0.198913 0.129181 2.337
-0.190293 0.127694 2.31
-0.183254 0.127201 2.301
-0.175879 0.126432 2.287
-0.168729 0.125774 2.275
-0.162143 0.125502 2.27
-0.155584 0.12523 2.265
-0.14892 0.124847 2.258
-0.14223 0.124409 2.25
-0.136007 0.124358 2.249
-0.129732 0.124251 2.247
-0.123356 0.124033 2.243
-0.117002 0.123815 2.239
-0.110818 0.123763 2.238
-0.10478 0.123877 2.24
-0.0985094 0.123714 2.237
-0.0923378 0.123661 2.236
-0.0859785 0.123332 2.23
-0.0799025 0.12339 2.231
-0.0738867 0.123558 2.234
-0.0678542 0.123726 2.237
-0.0617222 0.123728 2.237
-0.0554408 0.123397 2.231
-0.0492142 0.123122 2.226
-0.043131 0.123179 2.227
-0.0370588 0.123291 2.229
-0.0309615 0.123347 2.23
-0.0248253 0.123237 2.228
-0.0187166 0.123238 2.228
-0.0126249 0.123404 2.231
-0.00651083 0.12346 2.232
-0.000390901 0.123405 2.231
0.00573895 0.123681 2.236
0.0118909 0.123902 2.24
0.0180889 0.124289 2.247
0.024228 0.124178 2.245
0.0304508 0.124454 2.25
0.0366521 0.124563 2.252
0.0430734 0.125281 2.265
0.0493481 0.125446 2.268
0.0556637 0.125665 2.272
0.0617285 0.125332 2.266
0.068 0.125441 2.268
0.074413 0.12577 2.274
0.0810005 0.126321 2.284
0.0877571 0.127038 2.297
0.0947484 0.127975 2.314
0.102051 0.129189 2.336
0.109241 0.130127 2.353
0.115689 0.130123 2.353
0.12089 0.128793 2.329
0.125576 0.127075 2.298
0.131011 0.126242 2.283
0.135942 0.125022 2.261
0.14094 0.123967 2.242
0.146752 0.123687 2.237
0.152878 0.123682 2.237
0.158861 0.123568 2.235
0.164832 0.123452 2.233
0.171098 0.123558 2.235
0.177375 0.123664 2.237
0.183415 0.123604 2.236
0.18928 0.123433 2.233
0.195127 0.123262 2.23
0.201048 0.123146 2.228
0.207422 0.123306 2.231
0.215247 0.124295 2.249
0.223957 0.125726 2.275
-0.282619 0.131964 2.513
-0.274106 0.131183 2.498
-0.267599 0.131347 2.501
-0.260866 0.131407 2.502
-0.255244 0.132044 2.514
-0.24916 0.13247 2.522
-0.242551 0.132634 2.525
-0.234431 0.131957 2.512
-0.225295 0.13065 2.487
-0.200025 0.123464 2.35
-0.190216 0.121315 2.309
-0.1831 0.120794 2.299
-0.176269 0.120431 2.292
-0.169178 0.119858 2.281
-0.162362 0.119442 2.273
-0.155657 0.119078 2.266
-0.149254 0.118925 2.263
-0.14255 0.118508 2.255
-0.136132 0.118302 2.251
-0.129678 0.118043 2.246
-0.123415 0.117941 2.244
-0.117162 0.117839 2.242
-0.110821 0.117632 2.238
-0.104689 0.117635 2.238
-0.0984241 0.11748 2.235
-0.092423 0.11764 2.238
-0.0861351 0.117432 2.234
-0.0800479 0.117487 2.235
-0.0737565 0.117226 2.23
-0.0677044 0.117333 2.232
-0.0615032 0.117177 2.229
-0.0553678 0.117126 2.228
-0.0492156 0.117023 2.226
-0.0432678 0.117445 2.234
-0.0372095 0.117656 2.238
-0.0310457 0.117552 2.236
-0.0248371 0.117184 2.229
-0.018734 0.117238 2.23
-0.0126366 0.117396 2.233
-0.00651393 0.117396 2.233
-0.000390386 0.117133 2.228
0.00573141 0.117396 2.233
0.0118965 0.117816 2.241
0.0180974 0.118184 2.248
0.0242611 0.118183 2.248
0.0304652 0.11834 2.251
0.0367182 0.118602 2.256
0.0430746 0.119074 2.265
0.0494148 0.119389 2.271
0.0556897 0.119492 2.273
0.0618392 0.119333 2.27
0.0679719 0.119173 2.267
0.0744478 0.119592 2.275
0.0810383 0.120116 2.285
0.087836 0.120849 2.299
0.094792 0.121688 2.315
0.101923 0.122631 2.333
0.108734 0.123102 2.342
0.115987 0.123992 2.359
0.125525 0.120727 2.297
0.130555 0.119567 2.275
0.135705 0.118618 2.257
0.140818 0.11772 2.24
0.146559 0.117401 2.234
0.152745 0.11745 2.235
0.158581 0.117235 2.231
0.164468 0.117074 2.228
0.17118 0.117489 2.236
0.177459 0.11759 2.238
0.183666 0.117638 2.239
0.18937 0.11737 2.234
0.195745 0.117523 2.237
0.201956 0.11757 2.238
0.20752 0.117249 2.232
0.214008 0.117454 2.236
0.222387 0.118657 2.259
-0.283076 0.125283 2.517
-0.274881 0.124693 2.505
-0.267713 0.12455 2.502
-0.261186 0.124706 2.505
-0.255149 0.12511 2.513
-0.249166 0.125565 2.522
-0.242365 0.12562 2.523
-0.234717 0.125228 2.515
-0.226569 0.124536 2.501
-0.191374 0.115688 2.323
-0.183821 0.114946 2.308
-0.176504 0.114303 2.295
-0.169553 0.113859 2.286
-0.162437 0.113265 2.274
-0.15573 0.112921 2.267
-0.149258 0.112725 2.263
-0.142681 0.11243 2.257
-0.136196 0.112185 2.252
-0.129681 0.111889 2.246
-0.123473 0.111842 2.245
-0.117165 0.111696 2.242
-0.110874 0.11155 2.239
-0.104551 0.111353 2.235
-0.0985148 0.111455 2.237
-0.0924667 0.111557 2.239
-0.0862145 0.11141 2.236
-0.0801217 0.111462 2.237
-0.0739569 0.111414 2.236
-0.0678276 0.111416 2.236
-0.0615876 0.111219 2.232
-0.0553693 0.111021 2.228
-0.0493054 0.111122 2.23
-0.0433464 0.111522 2.238
-0.037277 0.111722 2.242
-0.0310743 0.111524 2.238
-0.0248489 0.111126 2.23
-0.0187261 0.111076 2.229
-0.0126256 0.111176 2.231
-0.00651119 0.111227 2.232
-0.000390572 0.111077 2.229
0.00573413 0.111326 2.234
0.0118756 0.111475 2.237
0.0180737 0.111874 2.245
0.0242833 0.112122 2.25
0.0305202 0.112371 2.255
0.0368331 0.112769 2.263
0.0431518 0.113067 2.269
0.0495467 0.113464 2.277
0.0557647 0.113413 2.276
0.0619498 0.113312 2.274
0.0681236 0.11321 2.272
0.0744825 0.113408 2.276
0.081005 0.113804 2.284
0.0875327 0.114151 2.291
0.0944669 0.114946 2.307
0.101357 0.115591 2.32
0.108412 0.116336 2.335
0.115498 0.11703 2.349
0.125638 0.114533 2.299
0.130444 0.113235 2.273
0.135769 0.112484 2.258
0.140885 0.111634 2.241
0.146629 0.111331 2.235
0.152203 0.110929 2.227
0.158159 0.110825 2.225
0.164398 0.110921 2.227
0.171031 0.111265 2.234
0.177543 0.11151 2.239
0.183343 0.111306 2.235
0.189035 0.111052 2.23
0.195225 0.111097 2.231
0.201961 0.111441 2.238
0.207432 0.111087 2.231
0.214301 0.111481 2.239
0.22259 0.112571 2.261
-0.284207 0.118863 2.527
-0.275326 0.118023 2.509
-0.268468 0.118029 2.509
-0.26213 0.11827 2.514
-0.255663 0.118464 2.518
-0.248481 0.118329 2.515
-0.24141 0.118241 2.513
-0.23463 0.118293 2.514
-0.22748 0.118157 2.511
-0.219116 0.117363 2.494
-0.192285 0.109843 2.334
-0.184304 0.108906 2.314
-0.176893 0.108251 2.3
-0.169854 0.107785 2.29
-0.162799 0.107271 2.279
-0.155871 0.106804 2.269
-0.149064 0.106384 2.26
-0.142811 0.106341 2.259
-0.136321 0.106109 2.254
-0.129915 0.105923 2.25
-0.123641 0.105832 2.248
-0.117273 0.105647 2.244
-0.110976 0.105508 2.241
-0.104694 0.10537 2.238
-0.0987815 0.105608 2.243
-0.0926342 0.10561 2.243
-0.086101 0.105141 2.233
-0.079873 0.105002 2.23
-0.0738264 0.105098 2.232
-0.0677686 0.105194 2.234
-0.0615616 0.105054 2.231
-0.055321 0.10482 2.226
-0.0492624 0.104916 2.228
-0.0432507 0.105153 2.233
-0.037228 0.105436 2.239
-0.0310751 0.10539 2.238
-0.0249053 0.105249 2.235
-0.0187853 0.105297 2.236
-0.0126542 0.105297 2.236
-0.00652302 0.105297 2.236
-0.000391808 0.105298 2.236
0.00575481 0.10558 2.242
0.0119184 0.105721 2.245
0.0181064 0.105909 2.249
0.0242623 0.105861 2.248
0.0304668 0.106002 2.251
0.0367527 0.106331 2.258
0.0431339 0.106801 2.268
0.0495262 0.107176 2.276
0.0557661 0.107175 2.276
0.0620603 0.107268 2.278
0.0682753 0.107219 2.277
0.0746481 0.107406 2.281
0.0810779 0.107639 2.286
0.0875349 0.107873 2.291
0.0943874 0.10853 2.305
0.10136 0.109233 2.32
0.108832 0.110361 2.344
0.115993 0.111064 2.359
0.125727 0.114028 2.422
0.130103 0.106724 2.267
0.135772 0.106297 2.258
0.14114 0.105682 2.245
0.14696 0.105443 2.24
0.152821 0.105251 2.236
0.158589 0.105012 2.231
0.164476 0.104867 2.228
0.170882 0.105051 2.232
0.176913 0.105 2.231
0.182773 0.104855 2.228
0.188023 0.10438 2.218
0.194355 0.104516 2.221
0.200883 0.104747 2.226
0.206972 0.104742 2.226
0.213444 0.104926 2.23
0.22102 0.105626 2.245
-0.285451 0.112432 2.538
-0.277088 0.111862 2.525
-0.269544 0.111602 2.519
-0.263596 0.112006 2.528
-0.256278 0.111835 2.524
-0.248684 0.11153 2.517
-0.241031 0.111181 2.509
-0.234448 0.111319 2.512
-0.228029 0.111546 2.517
-0.219561 0.110753 2.499
-0.193196 0.103937 2.345
-0.185343 0.103143 2.327
-0.177743 0.102438 2.311
-0.170823 0.102087 2.303
-0.163374 0.101382 2.287
-0.156149 0.100765 2.273
-0.149001 0.100148 2.259
-0.142814 0.100151 2.259
-0.136505 0.100065 2.257
-0.130149 0.0999355 2.254
-0.123754 0.099761 2.25
-0.117276 0.0994977 2.244
-0.110929 0.099323 2.24
-0.104697 0.0992368 2.238
-0.0986957 0.0993721 2.241
-0.092306 0.0991083 2.235
-0.0859103 0.0987999 2.228
-0.0797674 0.0987575 2.227
-0.0738282 0.098981 2.232
-0.0677702 0.0990713 2.234
-0.0615354 0.0988954 2.23
-0.0552229 0.098542 2.222
-0.0491751 0.0986319 2.224
-0.0430774 0.098633 2.224
-0.0371292 0.099033 2.233
-0.0310203 0.0990782 2.234
-0.0249058 0.0991232 2.235
-0.0187354 0.0989019 2.23
-0.0126432 0.0990797 2.234
-0.0065261 0.099213 2.237
-0.000393044 0.0994792 2.243
0.00576008 0.0995235 2.244
0.0119293 0.0996563 2.247
0.0181068 0.0997446 2.249
0.0243061 0.0998772 2.252
0.0304946 0.0999209 2.253
0.0368024 0.100275 2.261
0.0431539 0.100629 2.269
0.0495709 0.101027 2.278
0.0558164 0.101026 2.278
0.0621163 0.101113 2.28
0.0683968 0.101156 2.281
0.0748462 0.10142 2.287
0.0812927 0.10164 2.292
0.0875751 0.101638 2.292
0.0943487 0.102168 2.304
0.101493 0.103009 2.323
0.109438 0.104514 2.357
0.116782 0.105309 2.375
0.123913 0.105839 2.387
0.130508 0.100823 2.274
0.136497 0.100642 2.27
0.141834 0.100018 2.256
0.14762 0.0997491 2.25
0.153508 0.0995683 2.246
0.159375 0.0993875 2.242
0.165366 0.0992952 2.24
0.171116 0.0990697 2.235
0.177392 0.0991545 2.237
0.182613 0.0986629 2.226
0.188112 0.0983485 2.219
0.193134 0.0978125 2.207
0.199714 0.098074 2.213
0.205489 0.0979366 2.21
0.212013 0.0981536 2.215
0.218859 0.0985034 2.223
-0.286132 0.105732 2.544
-0.277533 0.105114 2.529
-0.269978 0.10487 2.523
-0.26308 0.104876 2.523
-0.255268 0.104507 2.514
-0.2478 0.104263 2.508
-0.24094 0.104268 2.508
-0.235013 0.104688 2.518
-0.228124 0.104693 2.518
-0.219214 0.103741 2.495
-0.203448 0.0993798 2.39
-0.193777 0.0978038 2.352
-0.186144 0.0971841 2.337
-0.178593 0.0965641 2.322
-0.171271 0.0960272 2.309
-0.163877 0.0954069 2.294
-0.156565 0.0947864 2.279
-0.149268 0.0941242 2.263
-0.14307 0.0941273 2.263
-0.136811 0.0940887 2.262
-0.130383 0.0939251 2.258
-0.123757 0.0935951 2.25
-0.117278 0.0933481 2.244
-0.11108 0.0933089 2.243
-0.10484 0.0932281 2.241
-0.0986979 0.0932303 2.241
-0.0922255 0.0928995 2.233
-0.0859508 0.092735 2.229
-0.0797692 0.0926536 2.227
-0.0737637 0.0927801 2.23
-0.0676808 0.0928232 2.231
-0.0613989 0.092575 2.225
-0.055249 0.092493 2.223
-0.0491541 0.0924942 2.223
-0.0431752 0.0927448 2.229
-0.03713 0.0929122 2.233
-0.031021 0.0929545 2.234
-0.0248953 0.0929551 2.234
-0.0187694 0.0929556 2.234
-0.0126661 0.0931224 2.238
-0.00653791 0.0932474 2.241
-0.000393053 0.0933307 2.243
0.00575764 0.0933307 2.243
0.0119455 0.0936217 2.25
0.0181314 0.0937046 2.252
0.024339 0.093829 2.255
0.0305223 0.0938284 2.255
0.0368195 0.0941189 2.262
0.0431168 0.0943261 2.267
0.0494414 0.0945331 2.272
0.0557687 0.0946984 2.276
0.0620904 0.0948219 2.279
0.0685183 0.0950702 2.285
0.074946 0.0952766 2.29
0.0815073 0.0956078 2.298
0.0878828 0.0956891 2.3
0.0946374 0.0961448 2.311
0.10167 0.0968083 2.327
0.10958 0.0981789 2.36
0.116785 0.0988005 2.375
0.123397 0.0988811 2.377
0.130224 0.0943831 2.269
0.136379 0.0943386 2.268
0.142089 0.0940029 2.26
0.147951 0.0937918 2.255
0.153854 0.0936223 2.251
0.159876 0.0935358 2.249
0.165738 0.093366 2.245
0.171196 0.0929881 2.236
0.177079 0.0928597 2.233
0.182781 0.092648 2.228
0.188031 0.0922283 2.218
0.192876 0.0916422 2.204
0.198635 0.0915134 2.201
0.204657 0.0915092 2.201
0.211444 0.0918375 2.209
0.217978 0.0920409 2.214
0.225348 0.0925768 2.227
-0.2858 0.0986493 2.541
-0.277209 0.0980722 2.526
-0.269341 0.097728 2.517
-0.262042 0.0975777 2.513
-0.254867 0.0974662 2.51
-0.247805 0.0973933 2.508
-0.242098 0.0978641 2.52
-0.235765 0.0981017 2.526
-0.228491 0.0979508 2.522
-0.203197 0.0927158 2.387
-0.194604 0.0917486 2.362
-0.186865 0.0911309 2.346
-0.179135 0.0904741 2.329
-0.17172 0.0899337 2.315
-0.164024 0.0891989 2.296
-0.156774 0.0886581 2.282
-0.149667 0.0881561 2.269
-0.143389 0.0881202 2.268
-0.137237 0.0881618 2.269
-0.130559 0.0878537 2.261
-0.123814 0.0874676 2.251
-0.117333 0.0872369 2.245
-0.11128 0.0873169 2.247
-0.105029 0.0872414 2.245
-0.0986119 0.0870103 2.239
-0.0922274 0.086779 2.233
-0.0860297 0.0867031 2.231
-0.0800933 0.0868991 2.236
-0.074063 0.0870173 2.239
-0.0679249 0.0870187 2.239
-0.0614829 0.0865925 2.228
-0.055275 0.0864383 2.224
-0.0491773 0.0864393 2.224
-0.0432149 0.0867123 2.231
-0.0371474 0.0868297 2.234
-0.0310217 0.0868304 2.234
-0.0249181 0.0869087 2.236
-0.0187782 0.0868703 2.235
-0.012672 0.0870261 2.239
-0.0065293 0.0869874 2.238
-0.000393062 0.0871819 2.243
0.00575777 0.0871818 2.243
0.0119298 0.0873371 2.247
0.0180996 0.0873757 2.248
0.0243611 0.087725 2.257
0.0306042 0.0878799 2.261
0.0369017 0.0881125 2.267
0.0430227 0.0879173 2.262
0.0492901 0.088033 2.265
0.0556474 0.0882651 2.271
0.0620917 0.0885748 2.279
0.0684598 0.088729 2.283
0.0748822 0.0889218 2.288
0.0813671 0.0891534 2.294
0.0878464 0.089346 2.299
0.0943937 0.0895774 2.305
0.101367 0.0901583 2.32
0.108607 0.0908946 2.339
0.116345 0.0919415 2.366
0.124645 0.0932991 2.401
0.136142 0.0879679 2.264
0.141966 0.087732 2.258
0.147692 0.0874572 2.251
0.15331 0.0871433 2.243
0.15931 0.0870625 2.241
0.165594 0.087137 2.243
0.171276 0.0869006 2.237
0.177241 0.0868195 2.235
0.182867 0.0865829 2.229
0.188798 0.0865016 2.227
0.193317 0.0857987 2.209
0.19891 0.0856007 2.204
0.204661 0.0854803 2.201
0.211161 0.0856704 2.206
0.21749 0.0857828 2.209
0.22343 0.0857397 2.208
0.233624 0.0872886 2.248
-0.28603 0.0917632 2.543
-0.276885 0.0910465 2.523
-0.269346 0.0908348 2.517
-0.261735 0.0905869 2.51
-0.254668 0.0905193 2.508
-0.247908 0.0905598 2.509
-0.24191 0.0908891 2.518
-0.235769 0.0911821 2.526
-0.227952 0.0908253 2.516
-0.214214 0.0880136 2.438
-0.202094 0.0857068 2.374
-0.194196 0.0850967 2.357
-0.187107 0.0848113 2.349
-0.179446 0.084237 2.333
-0.171575 0.0835181 2.313
-0.164098 0.0829434 2.297
-0.157258 0.0826575 2.289
-0.150396 0.0823353 2.28
-0.143708 0.0820853 2.273
-0.1373 0.0819796 2.27
-0.130504 0.0816209 2.26
-0.123872 0.0813343 2.252
-0.117335 0.0810838 2.245
-0.111381 0.0812304 2.249
-0.105031 0.0810879 2.245
-0.0986138 0.0808731 2.239
-0.0922705 0.0806943 2.234
-0.0862627 0.0808044 2.237
-0.0802381 0.0809143 2.24
-0.0741306 0.0809519 2.241
-0.0680476 0.0810255 2.243
-0.0617325 0.08081 2.237
-0.0555495 0.0807388 2.235
-0.0493551 0.0806314 2.232
-0.0433319 0.0808129 2.237
-0.0371648 0.0807415 2.235
-0.0310362 0.0807421 2.235
-0.0249297 0.0808149 2.237
-0.0188374 0.0809959 2.242
-0.0126949 0.0810324 2.243
-0.00654402 0.0810326 2.243
-0.000392894 0.0809965 2.242
0.00577328 0.0812493 2.249
0.0119407 0.0812492 2.249
0.0181321 0.0813573 2.252
0.0243616 0.0815375 2.257
0.0306454 0.0817899 2.264
0.0368861 0.0818615 2.266
0.0429664 0.0816078 2.259
0.0491823 0.0816431 2.26
0.0555994 0.0819672 2.269
0.0620657 0.0822912 2.278
0.0684611 0.0824706 2.283
0.0748509 0.0826137 2.287
0.0812978 0.0827929 2.292
0.0878099 0.083008 2.298
0.0945184 0.0833675 2.308
0.101281 0.0837269 2.318
0.108284 0.0842306 2.332
0.115118 0.0845536 2.341
0.135363 0.0812937 2.251
0.141529 0.0812911 2.251
0.147301 0.0810718 2.245
0.153039 0.0808523 2.239
0.159029 0.0807772 2.237
0.164933 0.0806659 2.234
0.17036 0.0803379 2.225
0.175976 0.0801181 2.219
0.18164 0.0799343 2.214
0.187615 0.0798948 2.213
0.193058 0.0796386 2.206
0.199185 0.0796712 2.207
0.205502 0.0797758 2.21
0.21126 0.0796638 2.207
0.2171 0.0795878 2.205
0.222624 0.0794034 2.2
0.229887 0.0798324 2.212
-0.286822 0.0850326 2.55
-0.277219 0.0842369 2.526
-0.269457 0.0839745 2.518
-0.262573 0.0839789 2.518
-0.256094 0.0841166 2.522
-0.248802 0.0839873 2.518
-0.242107 0.0840581 2.52
-0.235306 0.0840954 2.521
-0.226597 0.0834321 2.501
-0.212285 0.0806002 2.416
-0.201247 0.0788688 2.364
-0.193705 0.0784384 2.351
-0.186792 0.0782415 2.345
-0.179295 0.0777774 2.331
-0.171652 0.0772132 2.314
-0.164101 0.0766488 2.297
-0.157467 0.0764847 2.292
-0.15086 0.0763205 2.287
-0.144027 0.0760226 2.278
-0.137423 0.0758248 2.272
-0.130506 0.0754266 2.26
-0.123984 0.0752286 2.254
-0.117442 0.074997 2.247
-0.111383 0.0750658 2.249
-0.105033 0.0749341 2.245
-0.0986597 0.074769 2.24
-0.0923548 0.0746372 2.236
-0.0862643 0.0746721 2.237
-0.0801679 0.0747069 2.238
-0.0740988 0.074775 2.24
-0.0679578 0.0747763 2.24
-0.0618164 0.0747774 2.24
-0.0556499 0.0747451 2.239
-0.0494445 0.0746458 2.236
-0.043294 0.0746133 2.235
-0.0370657 0.0744137 2.229
-0.0309534 0.0744143 2.229
-0.0248633 0.0744815 2.231
-0.0187789 0.0746154 2.235
-0.0126838 0.074816 2.241
-0.00654997 0.0749497 2.245
-0.000393252 0.0749164 2.244
0.00577082 0.0750499 2.248
0.0119303 0.0750164 2.247
0.0181083 0.0750829 2.249
0.0242973 0.0751493 2.251
0.0305918 0.0754493 2.26
0.0368868 0.075649 2.266
0.0431194 0.0756817 2.267
0.0494443 0.0758478 2.272
0.0556985 0.0758802 2.273
0.0620668 0.0760461 2.278
0.0684324 0.0761785 2.282
0.0749177 0.0764109 2.289
0.0814057 0.0766098 2.295
0.0879644 0.076842 2.302
0.0945201 0.0770407 2.308
0.101239 0.0773394 2.317
0.108054 0.0776714 2.327
0.11512 0.0781367 2.341
0.122521 0.0787689 2.36
0.141343 0.0750218 2.248
0.147041 0.0747857 2.241
0.152837 0.0746163 2.236
0.158676 0.0744801 2.232
0.164197 0.0742104 2.224
0.169291 0.0737738 2.211
0.175107 0.0736708 2.208
0.181069 0.0736344 2.207
0.187194 0.0736647 2.208
0.192799 0.0734947 2.203
0.198466 0.073358 2.199
0.204947 0.0735214 2.204
0.210307 0.0732844 2.197
0.216119 0.0732142 2.195
0.221515 0.0730105 2.189
0.228644 0.0733736 2.2
-0.288401 0.0784776 2.564
-0.278979 0.0778084 2.542
-0.270532 0.077384 2.528
-0.263099 0.077235 2.523
-0.256098 0.0772083 2.522
-0.248904 0.0771203 2.519
-0.241822 0.0770628 2.517
-0.234563 0.0769439 2.513
-0.224064 0.0757227 2.473
-0.211234 0.0736132 2.404
-0.200654 0.0721772 2.357
-0.192884 0.0716903 2.341
-0.186237 0.0716013 2.338
-0.179067 0.0712979 2.328
-0.171952 0.0709944 2.318
-0.164747 0.0706295 2.306
-0.158088 0.0704789 2.301
-0.151192 0.0702056 2.292
-0.144219 0.069871 2.281
-0.137426 0.0695975 2.272
-0.130681 0.069324 2.263
-0.124261 0.0692035 2.259
-0.117705 0.0689909 2.252
-0.111484 0.0689621 2.251
-0.105081 0.0688107 2.246
-0.0986613 0.0686285 2.24
-0.0923563 0.0685074 2.236
-0.0861501 0.0684476 2.234
-0.080026 0.0684489 2.234
-0.0738024 0.0683582 2.231
-0.0677162 0.06839 2.232
-0.0617623 0.0685749 2.238
-0.0557254 0.0686984 2.242
-0.0496664 0.0688218 2.246
-0.0433722 0.0686081 2.239
-0.0371162 0.0683942 2.232
-0.0309262 0.0682416 2.227
-0.0248637 0.0683646 2.231
-0.0188045 0.0685795 2.238
-0.012701 0.0687636 2.244
-0.00656175 0.0689169 2.249
-0.000392908 0.0687025 2.242
0.00575551 0.0687025 2.242
0.0118986 0.0686717 2.241
0.0180925 0.0688553 2.247
0.0242437 0.0688243 2.246
0.0304841 0.0690077 2.252
0.0368223 0.0693136 2.262
0.0431772 0.0695581 2.27
0.049554 0.0697718 2.277
0.0557484 0.0697097 2.275
0.0621496 0.0698926 2.281
0.0684935 0.0699835 2.284
0.0750499 0.0702581 2.293
0.0815135 0.07041 2.298
0.0878894 0.07047 2.3
0.0945626 0.0707442 2.309
0.101329 0.0710491 2.319
0.108335 0.0714763 2.333
0.115269 0.0718115 2.344
0.122212 0.072116 2.354
0.141534 0.0689524 2.251
0.146847 0.0685519 2.238
0.15284 0.0684883 2.236
0.158394 0.0682408 2.228
0.163683 0.0679013 2.217
0.168911 0.0675618 2.206
0.174713 0.0674673 2.203
0.180743 0.0674645 2.203
0.186519 0.0673698 2.2
0.192539 0.0673669 2.2
0.198289 0.067272 2.197
0.204672 0.0673914 2.201
0.209927 0.0671433 2.193
0.215827 0.0671095 2.192
0.221316 0.066953 2.187
0.228959 0.0674395 2.203
-0.299099 0.0723431 2.596
-0.288855 0.0715668 2.568
-0.278763 0.0707904 2.54
-0.270643 0.0704875 2.529
-0.263728 0.0704912 2.529
-0.257219 0.0706063 2.533
-0.250094 0.070554 2.531
-0.242979 0.0705017 2.529
-0.235127 0.0702263 2.519
-0.22443 0.0690585 2.477
-0.210446 0.0667754 2.395
-0.200827 0.0657745 2.359
-0.19231 0.0650802 2.334
-0.185443 0.0649156 2.328
-0.178378 0.0646672 2.319
-0.172028 0.0646697 2.319
-0.164964 0.0643932 2.309
-0.158297 0.0642561 2.304
-0.151063 0.0638679 2.29
-0.144221 0.063619 2.281
-0.137549 0.0634258 2.274
-0.131145 0.063344 2.271
-0.124593 0.0631785 2.265
-0.117864 0.0629013 2.255
-0.111436 0.0627635 2.25
-0.105223 0.0627372 2.249
-0.098839 0.0625992 2.244
-0.092523 0.062489 2.24
-0.0861899 0.0623508 2.235
-0.0800989 0.0623799 2.236
-0.0739027 0.0623253 2.234
-0.0677779 0.0623263 2.234
-0.0616804 0.0623552 2.235
-0.0555275 0.0623281 2.234
-0.0494682 0.0624126 2.237
-0.0432954 0.0623575 2.235
-0.03715 0.0623302 2.234
-0.0309961 0.0622749 2.232
-0.0249198 0.0623869 2.236
-0.0188299 0.0625267 2.241
-0.0127069 0.0626386 2.245
-0.00655894 0.0627224 2.248
-0.000392914 0.062555 2.242
0.0057402 0.0623876 2.236
0.0118882 0.0624712 2.239
0.0181089 0.06275 2.249
0.0243088 0.0628333 2.252
0.0305251 0.0629166 2.255
0.0368066 0.0630836 2.261
0.043292 0.0635015 2.276
0.04962 0.0636124 2.28
0.0558473 0.0635837 2.279
0.0620961 0.0635829 2.279
0.0684946 0.0637214 2.284
0.0750838 0.0639993 2.294
0.0815147 0.0641098 2.298
0.0878526 0.0641364 2.299
0.0943184 0.0642467 2.303
0.101068 0.0645242 2.313
0.108011 0.0648854 2.326
0.115124 0.0653022 2.341
0.122421 0.0657747 2.358
0.140907 0.0625036 2.241
0.146258 0.0621669 2.229
0.152227 0.0621089 2.227
0.158468 0.0621625 2.229
0.164055 0.061965 2.222
0.16899 0.0615443 2.207
0.174557 0.0613746 2.201
0.180418 0.0613163 2.199
0.186691 0.0613973 2.202
0.19228 0.0612553 2.197
0.19784 0.0611131 2.192
0.203094 0.0608873 2.184
0.209069 0.0608844 2.184
0.214846 0.0608257 2.182
0.221016 0.0608784 2.184
0.228235 0.0612098 2.196
-0.300601 0.0655601 2.609
-0.289197 0.0646088 2.571
-0.279645 0.0640343 2.548
-0.271074 0.0636607 2.533
-0.264462 0.0637394 2.536
-0.257629 0.0637678 2.537
-0.250492 0.0637207 2.535
-0.243366 0.0636735 2.533
-0.235877 0.0635257 2.527
-0.223526 0.0620202 2.467
-0.20957 0.0599614 2.385
-0.200319 0.0591595 2.353
-0.192313 0.0586843 2.334
-0.185366 0.0585107 2.327
-0.178072 0.0582113 2.315
-0.17166 0.0581884 2.314
-0.16468 0.0579642 2.305
-0.158093 0.0578657 2.301
-0.150999 0.0575659 2.289
-0.144223 0.0573667 2.281
-0.137672 0.0572427 2.276
-0.13132 0.0571942 2.274
-0.124705 0.0570198 2.267
-0.118127 0.0568453 2.26
-0.111636 0.0566959 2.254
-0.105178 0.0565464 2.248
-0.0987082 0.0563717 2.241
-0.0925656 0.0563729 2.241
-0.0864611 0.0563993 2.242
-0.0802791 0.0563752 2.241
-0.0739038 0.0562001 2.234
-0.0678092 0.0562262 2.235
-0.0618469 0.056378 2.241
-0.0557519 0.0564291 2.243
-0.0496237 0.056455 2.244
-0.0434122 0.0563801 2.241
-0.0372004 0.05628 2.237
-0.0310521 0.0562553 2.236
-0.024909 0.0562305 2.235
-0.018847 0.0564321 2.243
-0.0126901 0.0564071 2.242
-0.0065707 0.0566589 2.252
-0.000393971 0.0565583 2.248
0.00576339 0.0564828 2.245
0.0119202 0.0564826 2.245
0.0181494 0.0567089 2.254
0.0244171 0.0569099 2.262
0.0306068 0.0568843 2.261
0.0368071 0.0568839 2.261
0.0431214 0.0570343 2.267
0.0495554 0.0572853 2.277
0.0558726 0.05736 2.28
0.0621787 0.0574096 2.282
0.0686155 0.0575597 2.288
0.0751176 0.0577348 2.295
0.0815158 0.0578092 2.298
0.0877774 0.057783 2.297
0.0942787 0.0579075 2.302
0.100938 0.0581075 2.31
0.107966 0.0584835 2.325
0.11483 0.0587335 2.335
0.122838 0.0595117 2.366
0.145932 0.0559315 2.224
0.152229 0.056005 2.227
0.158257 0.0559779 2.226
0.164205 0.0559255 2.224
0.169605 0.055697 2.215
0.174718 0.0553931 2.203
0.180584 0.0553405 2.201
0.186694 0.0553633 2.202
0.192457 0.0552855 2.199
0.197121 0.0549059 2.184
0.202911 0.0548531 2.182
0.208497 0.05475 2.178
0.214455 0.0547473 2.178
0.220917 0.0548703 2.183
0.227718 0.0550686 2.191
0.235096 0.0553924 2.204
-0.298415 0.057989 2.59
-0.288975 0.057522 2.569
-0.279429 0.0570102 2.546
-0.271399 0.0567893 2.536
-0.264778 0.0568594 2.539
-0.258139 0.0569295 2.542
-0.251088 0.0569099 2.541
-0.243561 0.0567783 2.535
-0.236253 0.0566914 2.531
-0.223438 0.055238 2.466
-0.209573 0.0534261 2.385
-0.200662 0.0528011 2.357
-0.19281 0.0524225 2.34
-0.185687 0.0522231 2.331
-0.178305 0.0519339 2.318
-0.171291 0.0517342 2.309
-0.164325 0.0515345 2.3
-0.15782 0.0514692 2.297
-0.151001 0.0512917 2.289
-0.144477 0.0512037 2.285
-0.137915 0.0510933 2.28
-0.131553 0.0510501 2.278
-0.124816 0.0508499 2.269
-0.118128 0.0506496 2.26
-0.111489 0.0504492 2.251
-0.105226 0.0504057 2.249
-0.0987095 0.0502276 2.241
-0.0926493 0.0502735 2.243
-0.0865007 0.0502746 2.243
-0.0802801 0.0502307 2.241
-0.0739378 0.0500971 2.235
-0.0679314 0.0501876 2.239
-0.0618752 0.0502556 2.242
-0.0558272 0.050346 2.246
-0.0495358 0.0502121 2.24
-0.0433547 0.0501678 2.238
-0.037151 0.0500787 2.234
-0.0310524 0.0501239 2.236
-0.0249316 0.0501466 2.237
-0.0188473 0.0502814 2.243
-0.0127129 0.0503488 2.246
-0.00657662 0.0505283 2.254
-0.000395203 0.0505508 2.255
0.0057917 0.0505731 2.256
0.0119628 0.0505058 2.253
0.0181899 0.0506401 2.259
0.024493 0.050864 2.269
0.030729 0.0508861 2.27
0.0368727 0.0507736 2.265
0.043141 0.0508404 2.268
0.0495125 0.0509968 2.275
0.0559223 0.0511531 2.282
0.0622067 0.0511748 2.283
0.0686463 0.0513085 2.289
0.075053 0.0513973 2.293
0.0816942 0.0516205 2.303
0.0881988 0.0517316 2.308
0.0948123 0.0518874 2.315
0.101333 0.0519759 2.319
0.107968 0.0521092 2.325
0.114733 0.0522872 2.333
0.121854 0.0525996 2.347
0.146656 0.0500819 2.235
0.152572 0.0500129 2.232
0.158401 0.0499215 2.228
0.164207 0.04983 2.224
0.16999 0.0497385 2.22
0.175354 0.0495349 2.211
0.18034 0.0492416 2.198
0.185848 0.0491051 2.192
0.190709 0.0488118 2.179
0.19586 0.048608 2.17
0.201332 0.0484937 2.165
0.207925 0.0486482 2.172
0.213473 0.0485563 2.168
0.219908 0.0486659 2.173
0.226058 0.0487082 2.175
0.233285 0.0489744 2.187
-0.288528 0.0504068 2.565
-0.28009 0.050154 2.552
-0.271829 0.0499209 2.54
-0.26478 0.0499038 2.539
-0.257228 0.0497884 2.533
-0.250597 0.0498499 2.536
-0.243372 0.0497933 2.533
-0.236629 0.049835 2.535
-0.22634 0.0491099 2.498
-0.210014 0.0469888 2.39
-0.200324 0.0462633 2.353
-0.192894 0.0460294 2.341
-0.185689 0.0458346 2.331
-0.178692 0.0456791 2.323
-0.171515 0.0454646 2.312
-0.164612 0.045309 2.304
-0.158028 0.0452319 2.3
-0.151134 0.0450565 2.291
-0.144542 0.0449597 2.286
-0.137917 0.0448431 2.28
-0.131439 0.0447658 2.276
-0.124763 0.0446098 2.268
-0.118339 0.0445323 2.264
-0.111886 0.0444352 2.259
-0.105461 0.0443379 2.254
-0.0989308 0.0441816 2.246
-0.0927743 0.0441826 2.246
-0.0865017 0.0441245 2.243
-0.0800302 0.0439483 2.234
-0.0738063 0.0438901 2.231
-0.0678411 0.0439892 2.236
-0.0619863 0.0441866 2.246
-0.0559273 0.0442659 2.25
-0.0496912 0.0442074 2.247
-0.043452 0.0441292 2.243
-0.0371348 0.0439329 2.233
-0.0309556 0.0438545 2.229
-0.0248539 0.0438745 2.23
-0.0188139 0.0440518 2.239
-0.012713 0.0441897 2.246
-0.00657961 0.0443669 2.255
-0.000395558 0.0444063 2.257
0.0058046 0.0444849 2.261
0.0119789 0.0443865 2.256
0.0181982 0.044465 2.26
0.0244501 0.0445632 2.265
0.0307023 0.0446219 2.268
0.0368894 0.0445822 2.266
0.0431034 0.0445818 2.266
0.0495348 0.044778 2.276
0.0560455 0.0449939 2.287
0.0625071 0.045131 2.294
0.068797 0.0451303 2.294
0.0750866 0.0451296 2.294
0.0817306 0.0453255 2.304
0.0883908 0.0455017 2.313
0.0950591 0.0456581 2.321
0.101421 0.0456571 2.321
0.108015 0.0457544 2.326
0.114488 0.0457926 2.328
0.121388 0.045988 2.338
0.153463 0.0441505 2.245
0.158047 0.0437163 2.223
0.16347 0.0435377 2.214
0.169303 0.043477 2.211
0.175436 0.0434949 2.212
0.180835 0.0433359 2.204
0.185341 0.0429801 2.186
0.190011 0.0426833 2.171
0.194779 0.0424258 2.158
0.20059 0.0424042 2.157
0.20697 0.0425005 2.162
0.213475 0.0426164 2.168
0.219708 0.0426732 2.171
0.22606 0.0427497 2.175
0.233074 0.042944 2.185
0.243642 0.0437671 2.227
-0.288643 0.0433977 2.566
-0.280312 0.0431971 2.554
-0.272367 0.0430472 2.545
-0.2652 0.0430156 2.543
-0.257941 0.0429671 2.54
-0.250797 0.0429354 2.538
-0.24395 0.0429544 2.539
-0.237471 0.043041 2.544
-0.227883 0.0425524 2.515
-0.210632 0.0405577 2.397
-0.20024 0.039798 2.352
-0.192484 0.039529 2.336
-0.185213 0.0393445 2.325
-0.178617 0.0392953 2.322
-0.171665 0.0391614 2.314
-0.164971 0.0390782 2.309
-0.158235 0.0389781 2.303
-0.151267 0.0388102 2.293
-0.144733 0.0387438 2.289
-0.137858 0.0385758 2.279
-0.13144 0.0385262 2.276
-0.124654 0.038358 2.266
-0.118078 0.0382406 2.259
-0.11164 0.038157 2.254
-0.105369 0.0381241 2.252
-0.0990639 0.0380742 2.249
-0.0927752 0.0380242 2.246
-0.0864254 0.0379404 2.241
-0.0800668 0.0378396 2.235
-0.0739393 0.0378402 2.235
-0.0678721 0.0378747 2.237
-0.0618213 0.0379261 2.24
-0.0556544 0.0379097 2.239
-0.0495369 0.0379271 2.24
-0.0433749 0.0379106 2.239
-0.0371351 0.0378093 2.233
-0.0309559 0.0377419 2.229
-0.0249099 0.0378438 2.235
-0.018814 0.0379117 2.239
-0.0127188 0.0380473 2.247
-0.00655925 0.0380643 2.248
-0.000394159 0.0380813 2.249
0.00578155 0.0381321 2.252
0.0119578 0.038132 2.252
0.0181742 0.0382165 2.257
0.0243532 0.0381994 2.256
0.0306484 0.0383346 2.264
0.0369386 0.0384189 2.269
0.043237 0.0384863 2.273
0.0495789 0.0385706 2.278
0.055997 0.0386886 2.285
0.0623988 0.0387727 2.29
0.0686777 0.0387722 2.29
0.0750873 0.0388392 2.294
0.0816959 0.0389909 2.303
0.0884681 0.0391933 2.315
0.0948962 0.0392264 2.317
0.101335 0.0392594 2.319
0.10797 0.03936 2.325
0.114637 0.0394606 2.331
0.121545 0.0396288 2.341
0.153601 0.0380305 2.247
0.158262 0.0376737 2.226
0.163546 0.0374861 2.215
0.168922 0.0373324 2.206
0.174644 0.0372632 2.202
0.179934 0.0371094 2.193
0.184749 0.0368709 2.179
0.18975 0.0366832 2.168
0.19469 0.0364954 2.157
0.200964 0.0365614 2.161
0.207068 0.0365935 2.163
0.213477 0.0366763 2.168
0.219609 0.0367083 2.17
0.22627 0.0368249 2.177
0.232863 0.0369244 2.183
0.241238 0.0372946 2.205
-0.289433 0.0364681 2.573
-0.280205 0.0361866 2.553
-0.272797 0.0361319 2.549
-0.265515 0.0360912 2.546
-0.258857 0.0361356 2.549
-0.251392 0.0360665 2.544
-0.244433 0.0360683 2.544
-0.23794 0.0361409 2.549
-0.229969 0.0359866 2.538
-0.200072 0.0333239 2.35
-0.192156 0.03307 2.332
-0.184975 0.0329296 2.322
-0.17831 0.0328742 2.318
-0.171667 0.0328187 2.314
-0.164758 0.0327065 2.306
-0.158099 0.0326367 2.301
-0.151203 0.0325102 2.292
-0.144735 0.0324687 2.289
-0.137798 0.0323137 2.278
-0.131095 0.0322012 2.27
-0.12471 0.0321596 2.267
-0.118288 0.0321038 2.263
-0.111938 0.0320621 2.26
-0.105416 0.0319636 2.253
-0.0992409 0.0319643 2.253
-0.0928172 0.0318799 2.247
-0.0865804 0.0318522 2.245
-0.0801391 0.0317393 2.237
-0.0742707 0.0318534 2.245
-0.0681154 0.0318539 2.245
-0.0620426 0.031897 2.248
-0.0557294 0.0318123 2.242
-0.04967 0.0318695 2.246
-0.0434334 0.031813 2.242
-0.0372685 0.0317992 2.241
-0.0310256 0.0317001 2.234
-0.0249992 0.031828 2.243
-0.0188226 0.0317856 2.24
-0.0127416 0.0319418 2.251
-0.00655638 0.0318851 2.247
-0.000393812 0.0318852 2.247
0.00576619 0.0318709 2.246
0.0119366 0.0318993 2.248
0.0181582 0.0319985 2.255
0.0243318 0.0319841 2.254
0.0306216 0.0320974 2.262
0.0369389 0.0321965 2.269
0.0432944 0.0322955 2.276
0.0496663 0.0323803 2.282
0.056071 0.0324651 2.288
0.0623448 0.0324646 2.288
0.0685583 0.0324357 2.286
0.0750225 0.0325203 2.292
0.0815547 0.0326191 2.299
0.0882013 0.0327461 2.308
0.0945693 0.0327596 2.309
0.101073 0.0328157 2.313
0.107831 0.0329426 2.322
0.114736 0.0330978 2.333
0.122013 0.0333381 2.35
0.15805 0.0315294 2.223
0.162956 0.0313013 2.207
0.168234 0.0311583 2.197
0.173614 0.0310436 2.189
0.179361 0.0309998 2.186
0.184496 0.0308566 2.176
0.189927 0.0307702 2.17
0.195594 0.0307263 2.167
0.201524 0.0307249 2.167
0.207452 0.0307234 2.167
0.21338 0.0307219 2.167
0.220116 0.0308338 2.175
0.227104 0.030974 2.185
0.233718 0.0310574 2.191
0.240364 0.0311408 2.197
-0.288984 0.0293742 2.569
-0.280865 0.0292615 2.559
-0.273441 0.0292173 2.555
-0.266142 0.0291845 2.552
-0.260077 0.0292889 2.561
-0.252579 0.0292332 2.556
-0.245299 0.0292003 2.553
-0.238408 0.0292132 2.554
-0.230514 0.0291001 2.544
-0.20169 0.0271007 2.369
-0.193393 0.0268502 2.347
-0.185694 0.0266683 2.331
-0.178773 0.0265893 2.324
-0.171594 0.0264644 2.313
-0.164616 0.0263624 2.304
-0.157894 0.0262947 2.298
-0.151468 0.0262728 2.296
-0.145052 0.0262507 2.294
-0.138102 0.0261257 2.283
-0.131384 0.026035 2.275
-0.124766 0.0259556 2.268
-0.118237 0.0258877 2.262
-0.11179 0.0258311 2.257
-0.10523 0.0257402 2.249
-0.0991094 0.0257523 2.25
-0.0928179 0.0257185 2.247
-0.0866966 0.0257305 2.248
-0.0804979 0.0257196 2.247
-0.0745359 0.0257887 2.253
-0.0683283 0.0257777 2.252
-0.0619878 0.0257094 2.246
-0.0555806 0.0255953 2.236
-0.049427 0.0255842 2.235
-0.0432981 0.0255844 2.235
-0.0372189 0.025619 2.238
-0.0310813 0.0256192 2.238
-0.0250663 0.0257453 2.249
-0.0189236 0.0257798 2.252
-0.0127473 0.0257799 2.252
-0.00655351 0.0257113 2.246
-0.000393114 0.025677 2.243
0.0057611 0.0256884 2.244
0.011942 0.0257456 2.249
0.0181583 0.0258142 2.255
0.0243859 0.0258598 2.259
0.0306489 0.0259169 2.264
0.0369391 0.0259739 2.269
0.0432566 0.0260309 2.274
0.0496014 0.0260879 2.279
0.0559243 0.0261219 2.282
0.0621817 0.0261215 2.282
0.0685288 0.0261555 2.285
0.0750557 0.0262466 2.293
0.0816262 0.0263377 2.301
0.0881255 0.0263944 2.306
0.094529 0.0264168 2.308
0.100987 0.0264505 2.311
0.107832 0.0265758 2.322
0.114786 0.0267125 2.334
0.122948 0.0271009 2.368
0.158051 0.0254357 2.223
0.163179 0.0252861 2.21
0.168311 0.0251478 2.198
0.173536 0.0250324 2.188
0.178623 0.0249055 2.177
0.18365 0.0247786 2.166
0.189578 0.0247775 2.166
0.195957 0.0248336 2.171
0.201897 0.0248325 2.171
0.207454 0.0247855 2.167
0.213184 0.0247615 2.165
0.219511 0.024806 2.169
0.22617 0.0248848 2.176
0.232653 0.0249406 2.181
0.239709 0.0250537 2.191
-0.289548 0.0223804 2.574
-0.280976 0.0222599 2.56
-0.274513 0.0223045 2.565
-0.266978 0.0222622 2.56
-0.260383 0.0222981 2.564
-0.252976 0.0222645 2.56
-0.245781 0.0222482 2.558
-0.238876 0.0222579 2.559
-0.231149 0.0221894 2.551
-0.214502 0.0212335 2.441
-0.202883 0.0207299 2.383
-0.193971 0.0204785 2.354
-0.186093 0.0203227 2.336
-0.179236 0.0202713 2.33
-0.172262 0.0202025 2.322
-0.165332 0.0201337 2.314
-0.158101 0.0200213 2.301
-0.151534 0.0199872 2.297
-0.144989 0.019953 2.293
-0.138284 0.0198928 2.286
-0.131501 0.0198151 2.277
-0.124931 0.0197634 2.271
-0.118603 0.0197466 2.269
-0.112137 0.0197036 2.264
-0.105605 0.0196432 2.257
-0.0993302 0.0196262 2.255
-0.0930249 0.0196005 2.252
-0.0868899 0.0196097 2.253
-0.0806416 0.0195926 2.251
-0.0746025 0.0196278 2.255
-0.068359 0.0196107 2.253
-0.0620986 0.0195849 2.25
-0.0555561 0.0194546 2.235
-0.0493167 0.0194113 2.23
-0.0432015 0.0194115 2.23
-0.0372191 0.0194814 2.238
-0.0311371 0.0195163 2.242
-0.0250887 0.0195948 2.251
-0.0189405 0.019621 2.254
-0.0127587 0.0196211 2.254
-0.00655063 0.0195428 2.245
-0.000393291 0.0195341 2.244
0.00576113 0.0195341 2.244
0.0119315 0.0195602 2.247
0.0181665 0.0196385 2.256
0.02444 0.019708 2.264
0.0307167 0.0197514 2.269
0.0369556 0.0197599 2.27
0.0431998 0.0197685 2.271
0.0496234 0.0198466 2.28
0.0559246 0.0198638 2.282
0.062291 0.0198983 2.286
0.0685892 0.0199067 2.287
0.0751216 0.019976 2.295
0.0816266 0.0200279 2.301
0.0880495 0.0200536 2.304
0.0944885 0.0200793 2.307
0.101162 0.0201485 2.315
0.107879 0.0202176 2.323
0.115033 0.0203564 2.339
0.122222 0.0204864 2.354
0.157981 0.0193333 2.222
0.162884 0.0191934 2.206
0.168389 0.0191317 2.199
0.173616 0.019044 2.189
0.178789 0.0189562 2.179
0.183736 0.018851 2.167
0.189579 0.0188415 2.166
0.196048 0.0188928 2.172
0.20134 0.0188311 2.165
0.206689 0.018778 2.159
0.212102 0.0187336 2.154
0.218702 0.0187935 2.161
0.225131 0.018836 2.166
0.231694 0.0188872 2.172
0.238398 0.0189471 2.179
-0.289887 0.0153471 2.577
-0.282184 0.0153122 2.571
-0.274942 0.0153011 2.569
-0.267396 0.0152722 2.564
-0.260181 0.015261 2.562
-0.253668 0.0152916 2.567
-0.246646 0.0152923 2.567
-0.239717 0.015299 2.568
-0.231603 0.0152282 2.556
-0.215557 0.0146152 2.453
-0.20331 0.0142286 2.388
-0.194878 0.0140921 2.365
-0.187049 0.0139914 2.348
-0.180082 0.0139503 2.341
-0.172856 0.0138852 2.33
-0.165904 0.0138381 2.322
-0.158514 0.0137492 2.307
-0.151865 0.0137199 2.302
-0.145116 0.0136786 2.295
-0.138345 0.0136314 2.287
-0.131443 0.0135662 2.276
-0.124932 0.0135368 2.271
-0.118499 0.0135133 2.267
-0.112039 0.0134839 2.262
-0.105652 0.0134604 2.258
-0.0992865 0.0134369 2.254
-0.0929839 0.0134193 2.251
-0.0868903 0.0134315 2.253
-0.0807136 0.0134317 2.253
-0.0745366 0.013432 2.253
-0.0681165 0.0133845 2.245
-0.061878 0.0133668 2.242
-0.0555066 0.0133134 2.233
-0.0492506 0.0132778 2.227
-0.0431823 0.0132898 2.229
-0.0371527 0.0133198 2.234
-0.0311511 0.0133735 2.243
-0.0250331 0.0133915 2.246
-0.0189153 0.0134214 2.251
-0.0127248 0.0134036 2.248
-0.00653898 0.0133618 2.241
-0.000392416 0.0133499 2.239
0.00575345 0.0133619 2.241
0.0119368 0.0134036 2.248
0.0181666 0.0134512 2.256
0.0243862 0.013469 2.259
0.0306492 0.0134988 2.264
0.0368743 0.0135046 2.265
0.0432 0.0135403 2.271
0.0495148 0.013564 2.275
0.0558023 0.0135757 2.277
0.0622913 0.0136292 2.286
0.0686494 0.0136469 2.289
0.0751873 0.0136943 2.297
0.0816979 0.0137299 2.303
0.0880881 0.0137415 2.305
0.0945299 0.0137591 2.308
0.101162 0.0138005 2.315
0.108297 0.0139016 2.332
0.115378 0.0139847 2.346
0.122482 0.0140618 2.359
0.163697 0.0132119 2.217
0.168466 0.0131101 2.2
0.173855 0.0130619 2.192
0.178461 0.0129601 2.175
0.184075 0.0129357 2.171
0.18923 0.0128815 2.162
0.195236 0.0128869 2.163
0.200597 0.0128505 2.157
0.205636 0.0127963 2.148
0.21102 0.0127659 2.143
0.216577 0.0127474 2.14
0.223157 0.0127884 2.147
0.229134 0.0127937 2.148
0.236429 0.0128705 2.161
0.244691 0.0129948 2.182
-0.29135 0.00832954 2.59
-0.282844 0.00828819 2.577
-0.275156 0.00826933 2.571
-0.267292 0.00824403 2.563
-0.259979 0.0082348 2.56
-0.253768 0.00826095 2.568
-0.247223 0.00827744 2.573
-0.240651 0.00829392 2.578
-0.231966 0.00823639 2.56
-0.202799 0.00766439 2.382
-0.194384 0.0075907 2.359
-0.186731 0.00754275 2.344
-0.179775 0.00752053 2.337
-0.172708 0.00749185 2.328
-0.165619 0.00745995 2.318
-0.158308 0.00741516 2.304
-0.151865 0.00740898 2.302
-0.145243 0.00739314 2.297
-0.138466 0.00736763 2.289
-0.131675 0.00733888 2.28
-0.124932 0.00731013 2.271
-0.1185 0.00729746 2.267
-0.112039 0.00728156 2.262
-0.105652 0.00726886 2.258
-0.0993308 0.00725938 2.255
-0.0929428 0.00724344 2.25
-0.0868133 0.00724682 2.251
-0.0805705 0.00724052 2.249
-0.0743383 0.00723421 2.247
-0.067965 0.00721179 2.24
-0.0618782 0.00721834 2.242
-0.0557304 0.00721844 2.242
-0.0495161 0.00720887 2.239
-0.0433567 0.00720573 2.238
-0.0372193 0.0072058 2.238
-0.0312067 0.00723484 2.247
-0.025022 0.00722845 2.245
-0.0188566 0.00722527 2.244
-0.0126965 0.00722207 2.243
-0.00654775 0.00722531 2.244
-0.000393469 0.00722854 2.245
0.00575346 0.00721565 2.241
0.0119368 0.00723817 2.248
0.0181908 0.00727357 2.259
0.0244402 0.00728963 2.264
0.0306899 0.00729924 2.267
0.036907 0.00729918 2.267
0.0432381 0.00731843 2.273
0.0496455 0.00734411 2.281
0.0559495 0.00735046 2.283
0.0624004 0.0073729 2.29
0.0687095 0.00737601 2.291
0.0752202 0.00739842 2.298
0.0816271 0.00740795 2.301
0.0880501 0.00741746 2.304
0.0944482 0.00742375 2.306
0.101338 0.00746543 2.319
0.108344 0.00751032 2.333
0.11582 0.00758095 2.355
0.123573 0.00766123 2.38
0.164657 0.00717651 2.23
0.169002 0.00710222 2.207
0.173855 0.00705367 2.192
0.179528 0.00704051 2.188
0.1845 0.00700159 2.176
0.189142 0.00695303 2.161
0.194695 0.00693984 2.157
0.200132 0.00692344 2.152
0.20535 0.00690059 2.145
0.210134 0.00686487 2.134
0.21587 0.00686131 2.133
0.22295 0.00689956 2.145
0.229775 0.00692815 2.154
0.236648 0.00695672 2.163
0.243458 0.00698207 2.171
-0.2918 0.00123642 2.594
-0.283173 0.00122981 2.58
-0.275157 0.00122559 2.571
-0.267293 0.00122184 2.563
-0.260284 0.0012219 2.563
-0.25446 0.00122768 2.575
-0.247896 0.00123012 2.58
-0.240931 0.00123066 2.581
-0.231695 0.00121927 2.557
-0.212219 0.00115161 2.415
-0.2028 0.00113593 2.382
-0.194549 0.00112596 2.361
-0.18713 0.00112028 2.349
-0.179621 0.00111365 2.335
-0.172634 0.00110988 2.327
-0.165404 0.0011042 2.315
-0.15872 0.00110185 2.31
-0.152327 0.00110141 2.309
-0.145622 0.00109859 2.303
-0.13889 0.00109528 2.296
-0.131964 0.00109007 2.285
-0.125207 0.00108581 2.276
-0.118447 0.00108107 2.266
-0.11189 0.00107776 2.259
-0.105418 0.00107492 2.253
-0.0991106 0.00107352 2.25
-0.0929429 0.00107354 2.25
-0.0869291 0.00107547 2.254
-0.0807855 0.00107597 2.255
-0.0745037 0.00107456 2.252
-0.0681167 0.00107123 2.245
-0.0618782 0.00106982 2.242
-0.0557553 0.00107031 2.243
-0.0495382 0.00106889 2.24
-0.0434343 0.00106986 2.242
-0.0373357 0.0010713 2.245
-0.0312762 0.00107465 2.252
-0.025022 0.00107132 2.245
-0.0188398 0.00106989 2.242
-0.0127022 0.00107085 2.244
-0.00656818 0.00107419 2.251
-0.000395047 0.00107562 2.254
0.00577401 0.00107324 2.249
0.0119846 0.00107705 2.257
0.018223 0.00107991 2.263
0.0244834 0.00108229 2.268
0.0306899 0.00108181 2.267
0.0368907 0.00108132 2.266
0.0432572 0.00108513 2.274
0.0496673 0.00108894 2.282
0.0561211 0.00109274 2.29
0.0624822 0.00109416 2.293
0.0687396 0.00109366 2.292
0.0752531 0.00109699 2.299
0.0817336 0.00109935 2.304
0.0883559 0.00110315 2.312
0.0949398 0.00110599 2.318
0.101469 0.00110787 2.322
0.108298 0.00111262 2.332
0.115476 0.00112022 2.348
0.123313 0.00113307 2.375
0.165404 0.00103019 2.16
0.174649 0.00105018 2.202
0.179364 0.00104251 2.186
0.184415 0.00103722 2.175
0.188267 0.00102573 2.151
0.193432 0.00102187 2.143
0.199574 0.00102325 2.146
0.205158 0.00102177 2.143
0.210233 0.00101791 2.135
0.215263 0.00101404 2.127
0.222846 0.0010221 2.144
0.229775 0.00102681 2.154
0.235992 0.00102819 2.157
0.240767 0.00102336 2.147
-0.291013 -0.00585374 2.587
-0.283612 -0.00584727 2.584
-0.275799 -0.00583175 2.577
-0.268127 -0.00581847 2.571
-0.260182 -0.0057984 2.562
-0.253768 -0.00581227 2.568
-0.247224 -0.00582387 2.573
-0.240931 -0.00584226 2.581
-0.22807 -0.00569765 2.517
-0.212482 -0.0054738 2.418
-0.202629 -0.00538801 2.38
-0.194631 -0.00534749 2.362
-0.186811 -0.00530922 2.345
-0.180006 -0.00529811 2.34
-0.173079 -0.00528247 2.333
-0.165904 -0.00525776 2.322
-0.158995 -0.00523983 2.314
-0.152129 -0.0052219 2.306
-0.145369 -0.00520622 2.299
-0.138829 -0.00519733 2.295
-0.132252 -0.00518617 2.29
-0.125537 -0.0051682 2.282
-0.118918 -0.00515249 2.275
-0.112188 -0.00512998 2.265
-0.105886 -0.00512558 2.263
-0.099507 -0.00511664 2.259
-0.0934799 -0.00512581 2.263
-0.0872376 -0.00512366 2.262
-0.0811437 -0.00513055 2.265
-0.0747684 -0.00511932 2.26
-0.0684505 -0.00511034 2.256
-0.0620162 -0.00509004 2.247
-0.0558796 -0.00509237 2.248
-0.0496267 -0.00508337 2.244
-0.0436086 -0.00509929 2.251
-0.037502 -0.0051084 2.255
-0.0314011 -0.00512203 2.261
-0.0249997 -0.00508129 2.243
-0.0187977 -0.00506772 2.237
-0.0126795 -0.00507454 2.24
-0.00657985 -0.00510853 2.255
-0.000396098 -0.00511986 2.26
0.00577914 -0.00509947 2.251
0.011974 -0.00510852 2.255
0.0181988 -0.00511983 2.26
0.024505 -0.00514246 2.27
0.0307305 -0.00514242 2.27
0.0369721 -0.00514465 2.271
0.0433142 -0.00515819 2.277
0.0497761 -0.00518079 2.287
0.0561946 -0.00519432 2.293
0.0624549 -0.00519198 2.292
0.0688295 -0.0051987 2.295
0.0754167 -0.005219 2.304
0.0818755 -0.00522797 2.308
0.0883941 -0.00523919 2.313
0.0950626 -0.0052572 2.321
0.101556 -0.00526388 2.324
0.108019 -0.00526829 2.326
0.114886 -0.0052908 2.336
0.122898 -0.00536087 2.367
0.174887 -0.00499228 2.205
0.179774 -0.00496038 2.191
0.184076 -0.00491489 2.171
0.18888 -0.00488524 2.158
0.193793 -0.00486012 2.147
0.199853 -0.00486443 2.149
0.205254 -0.00485288 2.144
0.210134 -0.00483001 2.134
0.21587 -0.00482751 2.133
0.223366 -0.00486347 2.149
0.230415 -0.00488811 2.16
0.235883 -0.0048788 2.156
0.241215 -0.00486722 2.151
-0.290562 -0.0129205 2.583
-0.283392 -0.0129162 2.582
-0.275798 -0.0128919 2.577
-0.268648 -0.0128876 2.576
-0.260892 -0.0128532 2.569
-0.254459 -0.0128839 2.575
-0.247704 -0.0128995 2.578
-0.240371 -0.0128851 2.575
-0.211867 -0.0120656 2.411
-0.202629 -0.011911 2.38
-0.194054 -0.0117864 2.355
-0.186651 -0.0117268 2.343
-0.179698 -0.0116922 2.336
-0.172931 -0.0116676 2.331
-0.165547 -0.011598 2.317
-0.158857 -0.0115734 2.312
-0.152129 -0.0115438 2.306
-0.145685 -0.0115341 2.304
-0.13901 -0.0115045 2.298
-0.132541 -0.0114898 2.295
-0.126032 -0.0114701 2.291
-0.119493 -0.0114454 2.286
-0.112831 -0.0114056 2.278
-0.106354 -0.0113809 2.273
-0.0997711 -0.0113411 2.265
-0.0937276 -0.0113614 2.269
-0.0874303 -0.0113516 2.267
-0.0813944 -0.0113769 2.272
-0.0750991 -0.0113671 2.27
-0.0685717 -0.0113172 2.26
-0.0620437 -0.0112573 2.248
-0.0558546 -0.0112524 2.247
-0.0496487 -0.0112425 2.245
-0.0437054 -0.0112977 2.256
-0.0376683 -0.0113429 2.265
-0.0314844 -0.011353 2.267
-0.0250777 -0.011268 2.25
-0.0188565 -0.011238 2.244
-0.0127248 -0.0112581 2.248
-0.00658859 -0.0113082 2.258
-0.000395221 -0.0112931 2.255
0.00578683 -0.0112881 2.254
0.0120005 -0.0113182 2.26
0.0182471 -0.0113482 2.266
0.0245157 -0.0113731 2.271
0.0307981 -0.0113931 2.275
0.0370372 -0.011393 2.275
0.0433712 -0.0114179 2.28
0.0496672 -0.0114278 2.282
0.0560964 -0.0114628 2.289
0.0623458 -0.0114576 2.288
0.0688594 -0.0114975 2.296
0.0753838 -0.0115323 2.303
0.0819108 -0.0115622 2.309
0.0884703 -0.011592 2.315
0.0953491 -0.0116569 2.328
0.101862 -0.0116716 2.331
0.108298 -0.0116763 2.332
0.114837 -0.0116911 2.335
0.122742 -0.011836 2.364
0.174252 -0.0109961 2.197
0.178953 -0.0109156 2.181
0.183228 -0.010815 2.161
0.188354 -0.0107695 2.152
0.193792 -0.010744 2.147
0.199574 -0.0107385 2.146
0.204392 -0.010683 2.135
0.209641 -0.0106524 2.129
0.215566 -0.0106569 2.13
0.22243 -0.0107064 2.14
0.229348 -0.0107558 2.15
0.235116 -0.0107503 2.149
0.241439 -0.0107697 2.153
-0.290786 -0.0200118 2.585
-0.283501 -0.0199974 2.583
-0.275583 -0.0199365 2.575
-0.26823 -0.0199144 2.572
-0.26079 -0.0198844 2.568
-0.254557 -0.0199473 2.576
-0.247991 -0.019987 2.581
-0.241023 -0.0199957 2.582
-0.226075 -0.0193229 2.495
-0.211163 -0.0186112 2.403
-0.201607 -0.0183409 2.368
-0.193642 -0.0182023 2.35
-0.186332 -0.0181178 2.339
-0.180082 -0.0181341 2.341
-0.173078 -0.0180728 2.333
-0.165261 -0.0179185 2.313
-0.15817 -0.017834 2.302
-0.151601 -0.0178036 2.298
-0.145495 -0.0178274 2.301
-0.139131 -0.0178202 2.3
-0.132598 -0.0177898 2.296
-0.126142 -0.0177671 2.293
-0.119544 -0.0177211 2.287
-0.112781 -0.0176441 2.277
-0.106307 -0.0176058 2.272
-0.0999911 -0.0175907 2.27
-0.0940164 -0.0176376 2.276
-0.0876614 -0.0176147 2.273
-0.0815016 -0.0176305 2.275
-0.0751981 -0.0176154 2.273
-0.0687535 -0.0175614 2.266
-0.0622367 -0.0174764 2.255
-0.056103 -0.0174922 2.257
-0.0498918 -0.0174846 2.256
-0.0438408 -0.0175391 2.263
-0.0376681 -0.0175547 2.265
-0.0315121 -0.0175859 2.269
-0.0250999 -0.0174542 2.252
-0.0189153 -0.0174466 2.251
-0.01277 -0.0174854 2.256
-0.00660608 -0.0175475 2.264
-0.000396271 -0.0175242 2.261
0.00580222 -0.0175165 2.26
0.0120005 -0.0175164 2.26
0.0182712 -0.0175861 2.269
0.0245696 -0.0176403 2.276
0.0308657 -0.0176712 2.28
0.0370208 -0.0176245 2.274
0.043295 -0.0176399 2.276
0.0495799 -0.0176552 2.278
0.0559492 -0.0176937 2.283
0.0622639 -0.017709 2.285
0.0689191 -0.0178094 2.298
0.0754818 -0.0178711 2.306
0.0820879 -0.0179328 2.314
0.0883936 -0.0179247 2.313
0.0952259 -0.0180173 2.325
0.101774 -0.0180479 2.329
0.108622 -0.018125 2.339
0.115131 -0.0181401 2.341
0.122534 -0.0182868 2.36
0.179363 -0.0169321 2.186
0.183566 -0.0167687 2.165
0.188879 -0.0167138 2.158
0.193882 -0.0166356 2.148
0.199666 -0.0166271 2.147
0.204104 -0.0165101 2.132
0.209247 -0.0164551 2.125
0.214755 -0.0164311 2.122
0.221182 -0.0164767 2.128
0.228067 -0.0165532 2.138
0.234459 -0.0165911 2.143
0.241438 -0.0166676 2.153
-0.290222 -0.0270406 2.58
-0.2835 -0.0270735 2.583
-0.275261 -0.0269597 2.572
-0.268124 -0.0269506 2.571
-0.2615 -0.0269939 2.575
-0.255445 -0.0271001 2.585
