# .PCD v.7 - Point Cloud Data file format
VERSION .7
FIELDS x y z
SIZE 4 4 4
TYPE F F F
COUNT 1 1 1
WIDTH 1846
HEIGHT 1
VIEWPOINT 0 0 0 1 0 0 0
POINTS 1846
DATA ascii
0.0317385 -0.648298 2.358
0.0382329 -0.649395 2.362
0.0453354 -0.659014 2.397
-0.204308 -0.715798 2.579
-0.196135 -0.71165 2.564
-0.188487 -0.709167 2.555
-0.180673 -0.705851 2.543
-0.173335 -0.7042 2.537
-0.166685 -0.705324 2.541
-0.160516 -0.708668 2.553
-0.153799 -0.709791 2.557
-0.146946 -0.710359 2.559
-0.139589 -0.708427 2.552
-0.13279 -0.709271 2.555
-0.12627 -0.71178 2.564
-0.040359 -0.677714 2.441
-0.0333445 -0.670499 2.415
-0.026505 -0.664115 2.392
-0.0199663 -0.663562 2.39
-0.0134666 -0.664396 2.393
-0.00693019 -0.663287 2.389
-0.000415568 -0.662176 2.385
0.00606958 -0.660233 2.378
0.0125377 -0.659399 2.375
0.0189733 -0.658009 2.37
0.025328 -0.655231 2.36
0.0318569 -0.657172 2.367
0.0384078 -0.658835 2.373
0.0448588 -0.658554 2.372
-0.2035 -0.719968 2.569
-0.196426 -0.719703 2.568
-0.188693 -0.716916 2.558
-0.180801 -0.713287 2.545
-0.17298 -0.709658 2.532
-0.16654 -0.711633 2.539
-0.160691 -0.716411 2.556
-0.154509 -0.720067 2.569
-0.147221 -0.718678 2.564
-0.139797 -0.716447 2.556
-0.132883 -0.716739 2.557
-0.126259 -0.718711 2.564
-0.0469526 -0.683468 2.438
-0.040306 -0.683472 2.438
-0.0333141 -0.676466 2.413
-0.0264363 -0.668899 2.386
-0.0200064 -0.671424 2.395
-0.013488 -0.671986 2.397
-0.00694121 -0.670866 2.393
-0.000415184 -0.668063 2.383
0.00606907 -0.666661 2.378
0.012563 -0.667221 2.38
0.0189958 -0.665257 2.373
0.0253259 -0.661611 2.36
0.031787 -0.662169 2.362
0.0382913 -0.663287 2.366
0.0445336 -0.6602 2.355
-0.204276 -0.729742 2.579
-0.196563 -0.727211 2.57
-0.188899 -0.72468 2.561
-0.181071 -0.721299 2.549
-0.173171 -0.717351 2.535
-0.166724 -0.719345 2.542
-0.160616 -0.723037 2.555
-0.154015 -0.724748 2.561
-0.147152 -0.725326 2.563
-0.139949 -0.724206 2.559
-0.133548 -0.72733 2.57
-0.127135 -0.730736 2.582
-0.0394761 -0.675909 2.388
-0.0329248 -0.675063 2.385
-0.0263344 -0.672801 2.377
-0.0199546 -0.6762 2.389
-0.0134587 -0.67705 2.392
-0.00693483 -0.676768 2.391
-0.000415498 -0.67507 2.385
0.0060456 -0.670541 2.369
0.0124986 -0.670257 2.368
0.0189462 -0.669973 2.367
0.0253775 -0.669405 2.365
0.0318113 -0.669119 2.364
0.0383852 -0.671381 2.372
-0.197083 -0.736158 2.577
-0.189401 -0.733602 2.568
-0.181767 -0.731045 2.559
-0.173977 -0.727631 2.547
-0.167301 -0.728787 2.551
-0.160854 -0.731086 2.559
-0.154364 -0.733384 2.567
-0.147599 -0.734539 2.571
-0.140813 -0.735693 2.575
-0.134005 -0.736847 2.579
-0.12742 -0.739429 2.588
-0.0462709 -0.686646 2.403
-0.0397539 -0.687221 2.405
-0.0330325 -0.683795 2.393
-0.0264984 -0.683511 2.392
-0.0200365 -0.685513 2.399
-0.013497 -0.685515 2.399
-0.00698646 -0.688373 2.409
-0.000417729 -0.68523 2.398
0.00605786 -0.678372 2.374
0.0124976 -0.676657 2.368
0.0189766 -0.677513 2.371
0.0254719 -0.678368 2.374
0.0319701 -0.678937 2.376
0.038738 -0.684078 2.394
-0.197909 -0.746295 2.588
-0.189976 -0.742849 2.576
-0.18225 -0.73998 2.566
-0.174509 -0.736822 2.555
-0.16755 -0.736835 2.555
-0.161533 -0.741174 2.57
-0.154712 -0.742052 2.573
-0.148162 -0.744371 2.581
-0.14113 -0.744383 2.581
-0.133994 -0.743817 2.579
-0.126622 -0.741808 2.572
-0.0400977 -0.699777 2.426
-0.0334025 -0.698049 2.42
-0.0266735 -0.69459 2.408
-0.0200599 -0.692861 2.402
-0.0134846 -0.691421 2.397
-0.00695399 -0.69171 2.398
-0.000416301 -0.689403 2.39
0.00604205 -0.683056 2.368
0.0124755 -0.681902 2.364
0.0190391 -0.686227 2.379
0.0256522 -0.689687 2.391
0.0322097 -0.69055 2.394
0.0388481 -0.692566 2.401
-0.19797 -0.75358 2.589
-0.190183 -0.750684 2.579
-0.182449 -0.747788 2.569
-0.175179 -0.746637 2.565
-0.168127 -0.74636 2.564
-0.161897 -0.749866 2.576
-0.155301 -0.751916 2.583
-0.148207 -0.751637 2.582
-0.141173 -0.751648 2.582
-0.133879 -0.750203 2.577
-0.126563 -0.748467 2.571
-0.0403093 -0.710117 2.439
-0.0333722 -0.704006 2.418
-0.0265827 -0.698767 2.4
-0.0200165 -0.697896 2.397
-0.0134779 -0.697606 2.396
-0.00696212 -0.699062 2.401
-0.000417138 -0.697316 2.395
0.00606963 -0.692657 2.379
0.012543 -0.692074 2.377
0.0191175 -0.695567 2.389
0.0257252 -0.698185 2.398
0.0322609 -0.698183 2.398
-0.198261 -0.761751 2.593
-0.189873 -0.756478 2.575
-0.181795 -0.752085 2.56
-0.174687 -0.751512 2.558
-0.167852 -0.752112 2.56
-0.161445 -0.754769 2.569
-0.155109 -0.758014 2.58
-0.148253 -0.758907 2.583
-0.141053 -0.758037 2.58
-0.134025 -0.758048 2.58
-0.127734 -0.762465 2.595
-0.0402069 -0.714943 2.433
-0.0332039 -0.707012 2.406
-0.026503 -0.703194 2.393
-0.0199648 -0.702608 2.391
-0.0135106 -0.705842 2.402
-0.00696155 -0.705549 2.401
-0.000417104 -0.703786 2.395
0.00608189 -0.700554 2.384
0.0125737 -0.700259 2.383
0.019172 -0.704078 2.396
0.0257982 -0.706721 2.405
0.03246 -0.709069 2.413
-0.199852 -0.774983 2.614
-0.190006 -0.764028 2.577
-0.182208 -0.760781 2.566
-0.175152 -0.760498 2.565
-0.168101 -0.760215 2.564
-0.160867 -0.759042 2.56
-0.154435 -0.761722 2.569
-0.147668 -0.76292 2.573
-0.140714 -0.763228 2.574
-0.133443 -0.761756 2.569
-0.127478 -0.767993 2.59
-0.040088 -0.719439 2.426
-0.033146 -0.712325 2.402
-0.0264012 -0.70699 2.384
-0.0199131 -0.707288 2.385
-0.0134814 -0.710848 2.397
-0.00696389 -0.712332 2.402
-0.000417592 -0.711146 2.398
0.00610946 -0.710256 2.395
0.0126201 -0.709365 2.392
0.0191945 -0.71144 2.399
0.0258069 -0.713514 2.406
0.0325785 -0.718257 2.422
-0.190876 -0.77458 2.589
-0.182691 -0.769808 2.573
-0.175207 -0.767727 2.566
-0.168088 -0.767142 2.564
-0.160854 -0.765957 2.56
-0.154243 -0.767765 2.566
-0.147599 -0.769572 2.572
-0.140539 -0.769284 2.571
-0.13338 -0.768397 2.568
-0.126484 -0.769005 2.57
-0.0403161 -0.730182 2.44
-0.0331847 -0.719711 2.405
-0.0264545 -0.714925 2.389
-0.0199115 -0.71373 2.385
-0.0134746 -0.717023 2.396
-0.00694014 -0.716425 2.394
-0.000415644 -0.714331 2.387
0.00608346 -0.713732 2.385
0.0126244 -0.716126 2.393
0.0192249 -0.719117 2.403
0.0258584 -0.721509 2.411
0.0327104 -0.727791 2.432
-0.191452 -0.78399 2.597
-0.183174 -0.778872 2.58
-0.175808 -0.777376 2.575
-0.168731 -0.777087 2.574
-0.161533 -0.776194 2.571
-0.154472 -0.775904 2.57
-0.14753 -0.776217 2.571
-0.140364 -0.775323 2.568
-0.133058 -0.773522 2.562
-0.126277 -0.774739 2.566
-0.0406268 -0.742509 2.459
-0.0333753 -0.730434 2.419
-0.0265631 -0.724397 2.399
-0.01996 -0.721983 2.391
-0.0134511 -0.722287 2.392
-0.00693959 -0.722891 2.394
-0.000416481 -0.722288 2.392
0.00611358 -0.723797 2.397
0.0126392 -0.723494 2.396
0.0191914 -0.724399 2.399
0.0258028 -0.726511 2.406
0.0326002 -0.731944 2.424
-0.183089 -0.785536 2.579
-0.175863 -0.784636 2.576
-0.169046 -0.785562 2.579
-0.162149 -0.786184 2.581
-0.155121 -0.786196 2.581
-0.148035 -0.785903 2.58
-0.140736 -0.784391 2.575
-0.133568 -0.783487 2.572
-0.126415 -0.782584 2.569
-0.0410366 -0.756766 2.484
-0.0335658 -0.741232 2.433
-0.026716 -0.735141 2.413
-0.0201254 -0.734533 2.411
-0.0135287 -0.733011 2.406
-0.00697382 -0.733012 2.406
-0.000418189 -0.731794 2.402
0.00614115 -0.733622 2.408
0.0126752 -0.732098 2.403
0.0192059 -0.731487 2.401
0.0258543 -0.734532 2.411
-0.182721 -0.790965 2.574
-0.175645 -0.790671 2.573
-0.168836 -0.791606 2.576
-0.161948 -0.792233 2.578
-0.154869 -0.791937 2.577
-0.148024 -0.792871 2.58
-0.141053 -0.793189 2.581
-0.134025 -0.793199 2.581
-0.126996 -0.793209 2.581
-0.0337701 -0.752412 2.448
-0.0269907 -0.749341 2.438
-0.020274 -0.746576 2.429
-0.0135952 -0.743197 2.418
-0.00699356 -0.741661 2.413
-0.000419201 -0.740124 2.408
0.00614832 -0.741046 2.411
0.0126847 -0.739201 2.405
0.0192604 -0.740122 2.408
0.025863 -0.74135 2.412
-0.183559 -0.801637 2.586
-0.176246 -0.80041 2.582
-0.169086 -0.799803 2.58
-0.161999 -0.799505 2.579
-0.154557 -0.797347 2.572
-0.147783 -0.798598 2.576
-0.14137 -0.802019 2.587
-0.13469 -0.8042 2.594
-0.127528 -0.80359 2.592
-0.12191 -0.81321 2.623
-0.0338778 -0.761503 2.456
-0.0270329 -0.757164 2.442
-0.0203309 -0.755306 2.436
-0.0135604 -0.747865 2.412
-0.00699882 -0.748796 2.415
-0.000418472 -0.745386 2.404
0.00613509 -0.746006 2.406
0.0126574 -0.744145 2.4
0.0192989 -0.748174 2.413
0.0260433 -0.753134 2.429
-0.184752 -0.813937 2.603
-0.176097 -0.806758 2.58
-0.168549 -0.804269 2.572
-0.161171 -0.802405 2.566
-0.153824 -0.80054 2.56
-0.147256 -0.80274 2.567
-0.141141 -0.807754 2.583
-0.134783 -0.81183 2.596
-0.127616 -0.811214 2.594
-0.121111 -0.814976 2.606
-0.0338752 -0.768134 2.456
-0.0270418 -0.76407 2.443
-0.0201875 -0.756566 2.419
-0.0135368 -0.753127 2.408
-0.0069722 -0.752502 2.406
-0.00041844 -0.751877 2.404
0.00614227 -0.75344 2.409
0.0126827 -0.752188 2.405
0.0192974 -0.754689 2.413
0.0260091 -0.758753 2.426
-0.176221 -0.814356 2.582
-0.168603 -0.81153 2.573
-0.161347 -0.81028 2.569
-0.154053 -0.808714 2.564
-0.14736 -0.810302 2.569
-0.140858 -0.813152 2.578
-0.134306 -0.816001 2.587
-0.127509 -0.817587 2.592
-0.120869 -0.820435 2.601
-0.114794 -0.827699 2.624
-0.0407432 -0.778231 2.467
-0.0337347 -0.77161 2.446
-0.0268184 -0.764356 2.423
-0.0201609 -0.76215 2.416
-0.0135077 -0.75805 2.403
-0.00696587 -0.758367 2.404
-0.000418756 -0.758998 2.406
0.006152 -0.761206 2.413
0.0127081 -0.760259 2.41
0.0192719 -0.760257 2.41
0.0259428 -0.76341 2.42
0.232984 -0.872301 2.766
-0.183874 -0.824178 2.591
-0.17573 -0.819101 2.575
-0.168132 -0.816251 2.566
-0.160771 -0.814354 2.56
-0.153802 -0.814365 2.56
-0.146948 -0.815012 2.562
-0.140247 -0.816613 2.567
-0.13357 -0.818532 2.573
-0.127303 -0.823313 2.588
-0.120675 -0.826185 2.597
-0.113998 -0.829057 2.606
-0.110799 -0.859288 2.701
-0.0472083 -0.780752 2.454
-0.0405915 -0.782028 2.458
-0.033677 -0.77694 2.442
-0.0269049 -0.773443 2.431
-0.0202261 -0.771218 2.424
-0.0135966 -0.769628 2.419
-0.00699142 -0.76772 2.413
-0.000420291 -0.768356 2.415
0.00616683 -0.769629 2.419
0.0127546 -0.769628 2.419
0.0193104 -0.768354 2.415
0.0260052 -0.771852 2.426
0.0327867 -0.775986 2.439
0.243102 -0.889297 2.796
-0.18379 -0.830854 2.59
-0.176264 -0.828621 2.583
-0.16871 -0.826066 2.575
-0.161324 -0.824153 2.569
-0.154452 -0.824806 2.571
-0.147339 -0.824175 2.569
-0.1404 -0.824506 2.57
-0.133664 -0.82612 2.575
-0.127047 -0.828696 2.583
-0.120155 -0.829668 2.586
-0.113333 -0.83128 2.591
-0.10451 -0.875571 2.729
-0.0407041 -0.79091 2.465
-0.0337297 -0.784816 2.446
-0.0269472 -0.781289 2.435
-0.0202663 -0.779365 2.429
-0.0136293 -0.778083 2.425
-0.00699959 -0.775196 2.416
-0.00042026 -0.774876 2.415
0.00615363 -0.774555 2.414
0.0127537 -0.776158 2.419
0.019333 -0.775836 2.418
0.0260462 -0.779685 2.43
-0.184629 -0.841729 2.602
-0.17632 -0.835918 2.584
-0.168632 -0.832695 2.574
-0.161124 -0.830119 2.566
-0.154261 -0.830777 2.568
-0.147099 -0.829817 2.565
-0.140445 -0.831768 2.571
-0.133602 -0.832748 2.574
-0.12694 -0.835022 2.581
-0.120053 -0.836002 2.584
-0.113325 -0.838275 2.591
-0.108732 -0.857695 2.651
-0.0407011 -0.797563 2.465
-0.0337823 -0.792713 2.45
-0.0270006 -0.789479 2.44
-0.0202982 -0.787216 2.433
-0.0136339 -0.784953 2.426
-0.0069788 -0.779453 2.409
-0.000419011 -0.77913 2.408
0.00614553 -0.7801 2.411
0.0127528 -0.782688 2.419
0.0193236 -0.782039 2.417
0.0260978 -0.787862 2.435
0.0329566 -0.79336 2.452
-0.184404 -0.847776 2.599
-0.176171 -0.842243 2.582
-0.168752 -0.840297 2.576
-0.161239 -0.837699 2.568
-0.15437 -0.838363 2.57
-0.147146 -0.837068 2.566
-0.140381 -0.838383 2.57
-0.133489 -0.839045 2.572
-0.126685 -0.840359 2.576
-0.119905 -0.841999 2.581
-0.11323 -0.844617 2.589
-0.107248 -0.853107 2.615
-0.102082 -0.869752 2.666
-0.0943622 -0.865518 2.653
-0.0409458 -0.809111 2.48
-0.0337937 -0.799652 2.451
-0.0269986 -0.796065 2.44
-0.0202634 -0.792479 2.429
-0.0136161 -0.790522 2.423
-0.00697829 -0.785955 2.409
-0.000418806 -0.785303 2.407
0.00613744 -0.785629 2.408
0.0127255 -0.787586 2.414
0.0193062 -0.787911 2.415
0.0260316 -0.792477 2.429
0.0328333 -0.797042 2.443
0.0422971 -0.853808 2.617
-0.19884 -0.856083 2.603
-0.191684 -0.855767 2.602
-0.183469 -0.850518 2.586
-0.17575 -0.847241 2.576
-0.168544 -0.846266 2.573
-0.161228 -0.844632 2.568
-0.154179 -0.844314 2.567
-0.146906 -0.84268 2.562
-0.140207 -0.844334 2.567
-0.133324 -0.845001 2.569
-0.126529 -0.846326 2.573
-0.119758 -0.847979 2.578
-0.113265 -0.851935 2.59
-0.107077 -0.85885 2.611
-0.0997012 -0.856555 2.604
-0.0938932 -0.868403 2.64
-0.0492523 -0.842447 2.561
-0.0408108 -0.813173 2.472
-0.0338188 -0.806926 2.453
-0.0269635 -0.801664 2.437
-0.0202369 -0.798048 2.426
-0.0135926 -0.795746 2.419
-0.00698648 -0.793444 2.412
-0.000419124 -0.792458 2.409
0.00614209 -0.792786 2.41
0.0127246 -0.794102 2.414
0.0193128 -0.794758 2.416
0.0260083 -0.798375 2.427
-0.204564 -0.857461 2.586
-0.197452 -0.857143 2.585
-0.190051 -0.855498 2.58
-0.182534 -0.853189 2.573
-0.175261 -0.851874 2.569
-0.16827 -0.851886 2.569
-0.161217 -0.851565 2.568
-0.153989 -0.850249 2.564
-0.146839 -0.849265 2.561
-0.140033 -0.850269 2.564
-0.133159 -0.850942 2.566
-0.126323 -0.851945 2.569
-0.11961 -0.853944 2.575
-0.112864 -0.855941 2.581
-0.10629 -0.859597 2.592
-0.098852 -0.856288 2.582
-0.0570986 -0.862621 2.601
-0.0491527 -0.847701 2.556
-0.0409895 -0.823493 2.483
-0.0339819 -0.817526 2.465
-0.0270611 -0.811227 2.446
-0.0202521 -0.805259 2.428
-0.0136085 -0.80327 2.422
-0.00699178 -0.800618 2.414
-0.000419616 -0.799955 2.412
0.00614166 -0.799291 2.41
0.0127184 -0.800285 2.413
0.0192874 -0.800284 2.413
0.02591 -0.801941 2.418
0.0325733 -0.803929 2.424
-0.303063 -0.929117 2.78
-0.203839 -0.861436 2.577
-0.196752 -0.861114 2.576
-0.189523 -0.860124 2.573
-0.182026 -0.857796 2.566
-0.174772 -0.85647 2.562
-0.167604 -0.855478 2.559
-0.160578 -0.855155 2.558
-0.153318 -0.853494 2.553
-0.146371 -0.853504 2.553
-0.139806 -0.855854 2.56
-0.132995 -0.856866 2.563
-0.126118 -0.857543 2.565
-0.119277 -0.858554 2.568
-0.112594 -0.860902 2.575
-0.105955 -0.863919 2.584
-0.0986921 -0.86192 2.578
-0.0484186 -0.841894 2.518
-0.0411187 -0.83287 2.491
-0.0341036 -0.827189 2.474
-0.0271145 -0.819501 2.451
-0.0202757 -0.812815 2.431
-0.0136188 -0.810476 2.424
-0.00699708 -0.807802 2.416
-0.000419587 -0.806465 2.412
0.00613613 -0.805127 2.408
0.0126859 -0.804792 2.407
0.0192541 -0.80546 2.409
0.0258761 -0.807464 2.415
0.0325844 -0.810806 2.425
0.0393472 -0.814147 2.435
0.0470328 -0.832867 2.491
0.055196 -0.854262 2.555
0.0619805 -0.851918 2.548
0.316073 -0.925741 2.77
-0.204063 -0.869405 2.58
-0.196739 -0.86807 2.576
-0.189216 -0.865723 2.569
-0.181659 -0.863039 2.561
-0.174214 -0.860691 2.554
-0.166873 -0.85868 2.548
-0.15994 -0.858691 2.548
-0.152767 -0.857353 2.544
-0.146017 -0.858374 2.547
-0.139359 -0.860068 2.552
-0.132623 -0.861425 2.556
-0.125765 -0.862108 2.558
-0.119037 -0.863801 2.563
-0.112368 -0.866168 2.57
-0.105784 -0.869546 2.58
-0.0989534 -0.871238 2.585
-0.0926648 -0.878322 2.606
-0.0642936 -0.878343 2.606
-0.0478961 -0.83959 2.491
-0.0411489 -0.840267 2.493
-0.0341839 -0.835888 2.48
-0.0271791 -0.828138 2.457
-0.0203327 -0.821736 2.438
-0.0136403 -0.818366 2.428
-0.00700818 -0.815671 2.42
-0.000419732 -0.813312 2.413
0.00613825 -0.811963 2.409
0.0126903 -0.811625 2.408
0.0192528 -0.811961 2.409
0.025885 -0.814319 2.416
0.0325553 -0.816677 2.423
0.039296 -0.819708 2.432
0.0460856 -0.822738 2.441
0.0536585 -0.837228 2.484
0.0608574 -0.843291 2.502
0.257292 -0.862554 2.56
0.318337 -0.939962 2.79
-0.333708 -0.904298 2.663
-0.212868 -0.883831 2.602
-0.204129 -0.876711 2.581
-0.196574 -0.874346 2.574
-0.188762 -0.870621 2.563
-0.18101 -0.866896 2.552
-0.173521 -0.86419 2.544
-0.166207 -0.862162 2.538
-0.159302 -0.862173 2.538
-0.152277 -0.861503 2.536
-0.145492 -0.862192 2.538
-0.138914 -0.86424 2.544
-0.132251 -0.865947 2.549
-0.125462 -0.866975 2.552
-0.11875 -0.868681 2.557
-0.112185 -0.871746 2.566
-0.105736 -0.87617 2.579
-0.0990999 -0.879574 2.589
-0.0480082 -0.848352 2.497
-0.0411296 -0.846656 2.492
-0.0341816 -0.842582 2.48
-0.0271883 -0.835109 2.458
-0.0203313 -0.828316 2.438
-0.013645 -0.825259 2.429
-0.00700771 -0.822202 2.42
-0.000420051 -0.820504 2.415
0.00614548 -0.819484 2.412
0.0127158 -0.819823 2.413
0.0192914 -0.820162 2.414
0.0259261 -0.822199 2.42
0.0326203 -0.824915 2.428
0.0393741 -0.82797 2.437
0.0461957 -0.831365 2.447
0.0531365 -0.835778 2.46
0.060002 -0.838153 2.467
0.0830682 -0.868715 2.557
0.0934774 -0.902004 2.655
0.10332 -0.925439 2.724
0.299889 -0.937346 2.76
-0.319588 -0.892343 2.607
-0.280739 -0.953065 2.784
-0.21672 -0.877835 2.564
-0.2113 -0.884353 2.583
-0.203484 -0.880941 2.573
-0.195798 -0.877872 2.564
-0.188014 -0.874118 2.553
-0.180289 -0.870363 2.542
-0.172965 -0.868319 2.536
-0.165738 -0.866618 2.531
-0.159041 -0.867655 2.534
-0.152147 -0.867665 2.534
-0.145368 -0.868359 2.536
-0.138577 -0.869053 2.538
-0.131931 -0.870774 2.543
-0.125257 -0.872494 2.548
-0.118557 -0.874214 2.553
-0.112091 -0.877988 2.564
-0.105811 -0.883816 2.581
-0.0555249 -0.866389 2.53
-0.0480243 -0.855434 2.498
-0.0411269 -0.853382 2.492
-0.0341518 -0.84859 2.478
-0.0271975 -0.842086 2.459
-0.0203383 -0.835238 2.439
-0.0136329 -0.83113 2.427
-0.00700434 -0.828391 2.419
-0.000420023 -0.827022 2.415
0.00614762 -0.826336 2.413
0.0127202 -0.826678 2.414
0.0192902 -0.826677 2.414
0.0258815 -0.827361 2.416
0.0324838 -0.828044 2.418
0.0392099 -0.831123 2.427
0.0460039 -0.834545 2.437
0.0528738 -0.838309 2.448
0.0596333 -0.839675 2.452
0.0772947 -0.88932 2.597
0.0834525 -0.879726 2.569
0.0904084 -0.879378 2.568
0.286966 -0.92736 2.709
0.300741 -0.947541 2.768
-0.331293 -0.912136 2.644
-0.209897 -0.885462 2.566
-0.202286 -0.882713 2.558
-0.194717 -0.879964 2.55
-0.186898 -0.875835 2.538
-0.17964 -0.87412 2.533
-0.172613 -0.873441 2.531
-0.165663 -0.873106 2.53
-0.158717 -0.872771 2.529
-0.151898 -0.873126 2.53
-0.145015 -0.873135 2.53
-0.138132 -0.873144 2.53
-0.131456 -0.874533 2.534
-0.124905 -0.876956 2.541
-0.11841 -0.88007 2.55
-0.111996 -0.884219 2.562
-0.10564 -0.889403 2.577
-0.0987809 -0.89079 2.581
-0.0639848 -0.895303 2.594
-0.055214 -0.868385 2.516
-0.0481365 -0.864247 2.504
-0.0411572 -0.860798 2.494
-0.0341495 -0.855278 2.478
-0.0271736 -0.848032 2.457
-0.0203203 -0.841131 2.437
-0.0136208 -0.83699 2.425
-0.00700388 -0.83492 2.419
-0.000420343 -0.83423 2.417
0.00614976 -0.833194 2.414
0.0127141 -0.832848 2.413
0.0192649 -0.832157 2.411
0.025837 -0.832501 2.412
0.0324145 -0.832844 2.413
0.0390297 -0.833877 2.416
0.0457177 -0.835945 2.422
0.05246 -0.838358 2.429
0.059216 -0.840425 2.435
0.0663019 -0.846289 2.452
-0.214243 -0.881598 2.535
-0.208822 -0.88787 2.553
-0.201246 -0.8851 2.545
-0.193484 -0.881285 2.534
-0.186224 -0.879558 2.529
-0.179345 -0.879568 2.529
-0.172466 -0.879579 2.529
-0.165522 -0.879241 2.528
-0.158582 -0.878903 2.527
-0.151768 -0.879261 2.528
-0.144891 -0.87927 2.528
-0.13785 -0.878235 2.525
-0.131033 -0.878591 2.526
-0.124554 -0.881381 2.534
-0.118217 -0.885562 2.546
-0.111902 -0.890439 2.56
-0.105305 -0.893577 2.569
-0.0774654 -0.894991 2.573
-0.055013 -0.872046 2.507
-0.0480181 -0.868918 2.498
-0.041138 -0.867182 2.493
-0.0341198 -0.861271 2.476
-0.0271608 -0.854316 2.456
-0.020319 -0.847708 2.437
-0.0136143 -0.843187 2.424
-0.00700343 -0.841449 2.419
-0.000419968 -0.840058 2.415
0.00614172 -0.838666 2.411
0.0126816 -0.837274 2.407
0.0192078 -0.83623 2.404
0.0257496 -0.836228 2.404
0.0323049 -0.836574 2.405
0.0388979 -0.837615 2.408
0.0455261 -0.839004 2.412
0.0522407 -0.841436 2.419
0.058969 -0.843519 2.425
0.065811 -0.846646 2.434
0.0735947 -0.860207 2.473
-0.256683 -0.943064 2.691
-0.253351 -0.958147 2.734
-0.220147 -0.912977 2.605
-0.209219 -0.896517 2.558
-0.201076 -0.891271 2.543
-0.193168 -0.886726 2.53
-0.185992 -0.885335 2.526
-0.179193 -0.885696 2.527
-0.17232 -0.885707 2.527
-0.16525 -0.884665 2.524
-0.158134 -0.883273 2.52
-0.151279 -0.883282 2.52
-0.144424 -0.883291 2.52
-0.137569 -0.883299 2.52
-0.130661 -0.882957 2.519
-0.124153 -0.885418 2.526
-0.117838 -0.889632 2.538
-0.111501 -0.894195 2.551
-0.105053 -0.898408 2.563
-0.0759252 -0.884059 2.522
-0.0618803 -0.87951 2.509
-0.0550534 -0.879514 2.509
-0.0480535 -0.876362 2.5
-0.0410859 -0.872859 2.49
-0.0340625 -0.866552 2.472
-0.0271038 -0.859192 2.451
-0.020301 -0.853585 2.435
-0.0135966 -0.848678 2.421
-0.0069943 -0.846926 2.416
-0.00041942 -0.845524 2.412
0.00613879 -0.844823 2.41
0.0126703 -0.84307 2.405
0.0191826 -0.841667 2.401
0.0257159 -0.841665 2.401
0.0322626 -0.842014 2.402
0.0388309 -0.842713 2.404
0.0454288 -0.843762 2.407
0.0520862 -0.845511 2.412
0.0587708 -0.847261 2.417
0.0654284 -0.848308 2.42
0.0721022 -0.849356 2.423
0.129912 -0.93309 2.662
-0.356668 -0.943765 2.673
-0.349535 -0.944134 2.674
-0.216839 -0.906239 2.566
-0.208225 -0.899187 2.546
-0.200432 -0.895314 2.535
-0.192775 -0.891793 2.525
-0.185687 -0.890744 2.522
-0.178828 -0.890754 2.522
-0.171969 -0.890764 2.522
-0.164848 -0.889361 2.518
-0.157873 -0.888664 2.516
-0.15097 -0.88832 2.515
-0.144186 -0.888682 2.516
-0.137342 -0.88869 2.516
-0.130654 -0.889757 2.519
-0.124145 -0.892238 2.526
-0.117692 -0.895424 2.535
-0.111538 -0.901435 2.552
-0.106317 -0.916277 2.594
-0.10278 -0.948781 2.686
-0.0664575 -0.857313 2.427
-0.0551159 -0.887346 2.512
-0.0481658 -0.88523 2.506
-0.0411494 -0.880994 2.494
-0.0340879 -0.873931 2.474
-0.0271132 -0.866161 2.452
-0.0202914 -0.859804 2.434
-0.0135901 -0.85486 2.42
-0.00698518 -0.852388 2.413
-0.000419046 -0.851328 2.41
0.00613331 -0.850622 2.408
0.012659 -0.848855 2.403
0.0191494 -0.846734 2.397
0.02565 -0.846027 2.395
0.0321666 -0.846025 2.395
0.0387154 -0.846729 2.397
0.0453694 -0.849199 2.404
0.0520614 -0.851669 2.411
0.0586942 -0.852725 2.414
0.0652081 -0.852015 2.412
0.071711 -0.851304 2.41
0.0777157 -0.845295 2.393
0.105415 -0.916278 2.594
0.11787 -0.903549 2.558
0.126732 -0.917317 2.597
-0.245819 -0.944093 2.653
-0.232788 -0.949812 2.669
-0.215137 -0.906052 2.546
-0.20756 -0.903217 2.538
-0.200105 -0.900737 2.531
-0.19284 -0.898968 2.526
-0.18575 -0.897911 2.523
-0.178818 -0.897565 2.522
-0.171823 -0.896863 2.52
-0.164642 -0.895093 2.515
-0.157425 -0.892967 2.509
-0.150601 -0.892975 2.509
-0.143777 -0.892984 2.509
-0.137061 -0.893704 2.511
-0.130387 -0.894779 2.514
-0.123892 -0.897278 2.521
-0.117592 -0.901556 2.533
-0.111444 -0.907613 2.55
-0.106106 -0.921501 2.589
-0.0829084 -0.899094 2.526
-0.0551784 -0.895195 2.515
-0.048259 -0.893774 2.511
-0.0411799 -0.888438 2.496
-0.034141 -0.882033 2.478
-0.0271115 -0.87278 2.452
-0.0202652 -0.865307 2.431
-0.0135724 -0.860324 2.417
-0.00698187 -0.858545 2.412
-0.000418847 -0.857478 2.409
0.00612785 -0.85641 2.406
0.0126477 -0.854629 2.401
0.0191323 -0.852493 2.395
0.0256271 -0.85178 2.393
0.0321243 -0.851422 2.392
0.0386646 -0.852132 2.394
0.0452534 -0.853553 2.398
0.0519503 -0.856398 2.406
0.0585691 -0.857462 2.409
0.065042 -0.85639 2.406
0.0714389 -0.854607 2.401
0.0778085 -0.852823 2.396
0.0847843 -0.857445 2.409
0.0924753 -0.868118 2.439
-0.239942 -0.956652 2.668
-0.214281 -0.909344 2.536
-0.206976 -0.907562 2.531
-0.199462 -0.904704 2.523
-0.192296 -0.90328 2.519
-0.185225 -0.902215 2.516
-0.178312 -0.901866 2.515
-0.171268 -0.9008 2.512
-0.16424 -0.899733 2.509
-0.157165 -0.898307 2.505
-0.150352 -0.898316 2.505
-0.143482 -0.897965 2.504
-0.136726 -0.898332 2.505
-0.130172 -0.900133 2.51
-0.123689 -0.90265 2.517
-0.117353 -0.906602 2.528
-0.11087 -0.909836 2.537
-0.105362 -0.922035 2.571
-0.0620911 -0.903057 2.518
-0.0551751 -0.901984 2.515
-0.048237 -0.900194 2.51
-0.041194 -0.895534 2.497
-0.0341803 -0.889798 2.481
-0.0271984 -0.882268 2.46
-0.0203474 -0.875456 2.441
-0.0136222 -0.870077 2.426
-0.00699592 -0.86685 2.417
-0.000418996 -0.864339 2.41
0.0061173 -0.86147 2.402
0.0126259 -0.859676 2.397
0.0191072 -0.857882 2.392
0.0255934 -0.857163 2.39
0.0320687 -0.856444 2.388
0.0385816 -0.856801 2.389
0.0451753 -0.858592 2.394
0.0518177 -0.860741 2.4
0.0584927 -0.862889 2.406
0.06493 -0.861451 2.402
0.0714049 -0.86073 2.4
0.0778039 -0.859291 2.396
0.0850609 -0.866818 2.417
0.199884 -0.978237 2.728
-0.221514 -0.917629 2.54
-0.214016 -0.915111 2.533
-0.206638 -0.912954 2.527
-0.199056 -0.909713 2.518
-0.191828 -0.907916 2.513
-0.184847 -0.907204 2.511
-0.178019 -0.907213 2.511
-0.170918 -0.905778 2.507
-0.163773 -0.90398 2.502
-0.156718 -0.902543 2.498
-0.149924 -0.902551 2.498
-0.14313 -0.90256 2.498
-0.1365 -0.903651 2.501
-0.129854 -0.904742 2.504
-0.123338 -0.906917 2.51
-0.116743 -0.90873 2.515
-0.110121 -0.910543 2.52
-0.102569 -0.904407 2.503
-0.0990514 -0.935487 2.589
-0.0551719 -0.908774 2.515
-0.0481573 -0.905525 2.506
-0.0411586 -0.901553 2.495
-0.0341645 -0.896135 2.48
-0.02723 -0.889993 2.463
-0.0203545 -0.882407 2.442
-0.0136326 -0.877349 2.428
-0.00699552 -0.873374 2.417
-0.000418798 -0.870484 2.409
0.0061093 -0.86687 2.399
0.0126041 -0.864702 2.393
0.0190821 -0.863255 2.389
0.0255598 -0.862531 2.387
0.0320266 -0.861807 2.385
0.0385147 -0.861805 2.385
0.0450594 -0.862887 2.388
0.0516852 -0.865052 2.394
0.0583192 -0.866856 2.399
0.0648182 -0.866491 2.398
0.0713413 -0.866487 2.398
0.077832 -0.866121 2.397
0.0857951 -0.880931 2.438
0.145451 -0.922794 2.554
-0.321915 -0.935237 2.57
-0.265934 -0.934976 2.569
-0.220979 -0.922307 2.534
-0.213583 -0.920134 2.528
-0.206056 -0.917233 2.52
-0.198571 -0.914331 2.512
-0.191283 -0.912157 2.506
-0.184248 -0.911075 2.503
-0.177442 -0.911084 2.503
-0.170363 -0.909637 2.499
-0.163241 -0.907825 2.494
-0.156145 -0.906014 2.489
-0.149316 -0.905658 2.488
-0.142664 -0.906394 2.49
-0.136002 -0.907129 2.492
-0.129432 -0.908592 2.496
-0.122889 -0.910419 2.501
-0.116504 -0.913702 2.51
-0.10959 -0.91298 2.508
-0.0549056 -0.911196 2.503
-0.0481354 -0.911927 2.505
-0.0411892 -0.909017 2.497
-0.0342315 -0.90465 2.485
-0.0273279 -0.89992 2.472
-0.0204617 -0.893732 2.455
-0.0136936 -0.887908 2.439
-0.00701248 -0.882084 2.423
-0.0004186 -0.876624 2.408
0.00610131 -0.872255 2.396
0.0125717 -0.868978 2.387
0.0190331 -0.867521 2.383
0.0254834 -0.866428 2.38
0.0319576 -0.866426 2.38
0.0384318 -0.866424 2.38
0.0449814 -0.867878 2.384
0.0515096 -0.868603 2.386
0.0581944 -0.871513 2.394
0.0647875 -0.872601 2.397
0.0714563 -0.874418 2.402
0.07799 -0.874414 2.402
0.084805 -0.877321 2.41
0.109802 -0.922081 2.533
0.136383 -0.915502 2.515
0.137642 -0.879821 2.417
0.270754 -0.930598 2.557
-0.350293 -0.924892 2.523
-0.229026 -0.93391 2.547
-0.220184 -0.925854 2.525
-0.212728 -0.923298 2.518
-0.205064 -0.919641 2.508
-0.197771 -0.917451 2.502
-0.190587 -0.915627 2.497
-0.183798 -0.915636 2.497
-0.177008 -0.915645 2.497
-0.170014 -0.914554 2.494
-0.162839 -0.912362 2.488
-0.15576 -0.910536 2.483
-0.148948 -0.910177 2.482
-0.14237 -0.911285 2.485
-0.135776 -0.912392 2.488
-0.129114 -0.913133 2.49
-0.122538 -0.914606 2.494
-0.116034 -0.916813 2.5
-0.110327 -0.925987 2.525
-0.104689 -0.936994 2.555
-0.0546394 -0.913553 2.491
-0.0481135 -0.918324 2.504
-0.0412364 -0.916859 2.5
-0.0342709 -0.91246 2.488
-0.0273817 -0.908428 2.477
-0.0204939 -0.901828 2.459
-0.0137097 -0.895594 2.442
-0.00700631 -0.887893 2.421
-0.000418229 -0.882392 2.406
0.00609334 -0.877624 2.393
0.0125552 -0.874323 2.384
0.0190001 -0.872488 2.379
0.0254285 -0.87102 2.375
0.0319156 -0.871752 2.377
0.0383813 -0.87175 2.377
0.0449224 -0.873215 2.381
0.0514204 -0.873579 2.382
0.0581426 -0.877243 2.392
0.064838 -0.879807 2.399
0.0716012 -0.882737 2.407
0.0781481 -0.882733 2.407
0.0849763 -0.885663 2.415
0.265545 -0.943755 2.574
0.274553 -0.950709 2.593
0.275302 -0.929432 2.535
0.32038 -0.961265 2.622
0.341266 -0.980302 2.674
-0.357843 -0.933552 2.528
-0.344171 -0.915469 2.479
-0.226228 -0.929343 2.516
-0.218778 -0.926767 2.509
-0.211704 -0.925669 2.506
-0.204237 -0.922724 2.498
-0.196971 -0.920517 2.492
-0.189814 -0.918679 2.487
-0.183053 -0.918688 2.487
-0.17622 -0.918327 2.486
-0.169324 -0.917597 2.484
-0.162242 -0.915758 2.479
-0.155313 -0.914658 2.476
-0.14852 -0.914296 2.475
-0.141905 -0.915042 2.477
-0.135224 -0.915419 2.478
-0.128692 -0.916903 2.482
-0.122139 -0.918387 2.486
-0.11575 -0.921348 2.494
-0.10936 -0.924679 2.503
-0.1037 -0.935029 2.531
-0.0799874 -0.981966 2.658
-0.0547461 -0.922127 2.496
-0.0482454 -0.927671 2.511
-0.0412013 -0.922871 2.498
-0.0343379 -0.921026 2.493
-0.0274134 -0.916225 2.48
-0.0205428 -0.910684 2.465
-0.0137145 -0.902557 2.443
-0.00700304 -0.894061 2.42
-0.000417338 -0.887041 2.401
0.00608537 -0.882977 2.39
0.0125388 -0.879652 2.381
0.0189671 -0.877434 2.375
0.025395 -0.876325 2.372
0.0318736 -0.877062 2.374
0.0383631 -0.877799 2.376
0.0448445 -0.878166 2.377
0.0512665 -0.877425 2.375
0.0579693 -0.881117 2.385
0.0647264 -0.884808 2.395
0.0715379 -0.888498 2.405
0.0781114 -0.888864 2.406
0.0848311 -0.890707 2.411
0.0913125 -0.889963 2.409
-0.223881 -0.926469 2.49
-0.217548 -0.928339 2.495
-0.210512 -0.927232 2.492
-0.203246 -0.925009 2.486
-0.196014 -0.922786 2.48
-0.189042 -0.921679 2.477
-0.182308 -0.921687 2.477
-0.175502 -0.921323 2.476
-0.168634 -0.920587 2.474
-0.161711 -0.919479 2.471
-0.154929 -0.919114 2.47
-0.148213 -0.919122 2.47
-0.141554 -0.919501 2.471
-0.135053 -0.920996 2.475
-0.128427 -0.921747 2.477
-0.121985 -0.923986 2.483
-0.11528 -0.924364 2.484
-0.109005 -0.928463 2.495
-0.102794 -0.933678 2.509
-0.0482621 -0.934825 2.512
-0.0411991 -0.929617 2.498
-0.0343224 -0.927386 2.492
-0.0274562 -0.924411 2.484
-0.0205584 -0.918085 2.467
-0.0137363 -0.910643 2.447
-0.00700846 -0.90134 2.422
-0.000417837 -0.894642 2.404
0.00609269 -0.890548 2.393
0.0125592 -0.88757 2.385
0.0189821 -0.884592 2.377
0.0253829 -0.882358 2.371
0.0318451 -0.882729 2.372
0.0382965 -0.882727 2.372
0.0447667 -0.883097 2.373
0.0511775 -0.88235 2.371
0.0578205 -0.885325 2.379
0.0644799 -0.887927 2.386
0.071326 -0.892389 2.398
0.0779451 -0.893501 2.401
0.084686 -0.89573 2.407
0.0911563 -0.894981 2.405
0.098103 -0.898698 2.415
0.26781 -0.895134 2.406
-0.223062 -0.929827 2.481
-0.216317 -0.929836 2.481
-0.209404 -0.929096 2.479
-0.20242 -0.92798 2.476
-0.195373 -0.92649 2.472
-0.188423 -0.925374 2.469
-0.181563 -0.924633 2.467
-0.174644 -0.923517 2.464
-0.16774 -0.9224 2.461
-0.160918 -0.921658 2.459
-0.15442 -0.922789 2.462
-0.147906 -0.923921 2.465
-0.141318 -0.924677 2.467
-0.134665 -0.925059 2.468
-0.128006 -0.92544 2.469
-0.121488 -0.926945 2.473
-0.114996 -0.928825 2.478
-0.109043 -0.935577 2.496
-0.103772 -0.949451 2.533
-0.0993696 -0.97382 2.598
-0.0415928 -0.94536 2.522
-0.0347751 -0.946486 2.525
-0.0274216 -0.929995 2.481
-0.0205824 -0.925873 2.47
-0.0137636 -0.919126 2.452
-0.00703993 -0.912005 2.433
-0.000419033 -0.903758 2.411
0.00610766 -0.89926 2.399
0.0125638 -0.894386 2.386
0.0189732 -0.890637 2.376
0.0253602 -0.888012 2.369
0.0317763 -0.887261 2.367
0.0382138 -0.887259 2.367
0.0446512 -0.887257 2.367
0.0510886 -0.887255 2.367
0.0576232 -0.888752 2.371
0.0642334 -0.890998 2.377
0.070906 -0.893618 2.384
0.0776166 -0.896238 2.391
0.0842948 -0.898108 2.396
0.0909243 -0.899229 2.399
0.0976513 -0.901098 2.404
-0.327738 -0.908811 2.408
-0.321863 -0.910708 2.413
-0.316874 -0.915247 2.425
-0.223232 -0.937289 2.483
-0.216134 -0.935788 2.479
-0.208888 -0.933532 2.473
-0.201839 -0.932031 2.469
-0.19489 -0.930906 2.466
-0.188033 -0.93016 2.464
-0.18104 -0.928658 2.46
-0.174069 -0.927155 2.456
-0.166915 -0.92452 2.449
-0.160322 -0.924905 2.45
-0.153849 -0.926045 2.453
-0.147539 -0.928317 2.459
-0.140968 -0.929078 2.461
-0.13444 -0.930217 2.464
-0.127792 -0.930601 2.465
-0.121384 -0.932872 2.471
-0.114851 -0.934387 2.475
-0.108121 -0.934392 2.475
-0.0936145 -0.994812 2.635
-0.0268234 -0.916309 2.427
-0.020423 -0.925371 2.451
-0.0138696 -0.932923 2.471
-0.00708009 -0.923862 2.447
-0.000421097 -0.914801 2.423
0.0061099 -0.906117 2.4
0.0125579 -0.900454 2.385
0.0189483 -0.895922 2.373
0.0253269 -0.893278 2.366
0.0317077 -0.891767 2.362
0.0381151 -0.891388 2.361
0.044517 -0.891008 2.36
0.0509782 -0.891761 2.362
0.0574745 -0.892891 2.365
0.0640952 -0.895531 2.372
0.0706944 -0.897415 2.377
0.0773856 -0.900055 2.384
0.0840093 -0.901561 2.388
0.0906926 -0.903444 2.393
0.0974436 -0.905705 2.399
0.266326 -0.974611 2.582
0.281511 -0.931918 2.469
0.325904 -0.963947 2.554
-0.37047 -0.940749 2.475
-0.372857 -0.964325 2.537
-0.368705 -0.971557 2.556
-0.332764 -0.929394 2.445
-0.327588 -0.933585 2.456
-0.319359 -0.94881 2.496
-0.215777 -0.94097 2.475
-0.208542 -0.938697 2.469
-0.201258 -0.936044 2.462
-0.194091 -0.933771 2.456
-0.187339 -0.933399 2.455
-0.18037 -0.931885 2.451
-0.173707 -0.931893 2.451
-0.166567 -0.929238 2.444
-0.160053 -0.930006 2.446
-0.153466 -0.930393 2.447
-0.147113 -0.932301 2.452
-0.140446 -0.932307 2.452
-0.133834 -0.932693 2.453
-0.127372 -0.93422 2.457
-0.120937 -0.936126 2.462
-0.114614 -0.939174 2.47
-0.107373 -0.934616 2.458
-0.0209636 -0.956708 2.516
-0.0140373 -0.951006 2.501
-0.0071029 -0.933515 2.455
-0.000421077 -0.921347 2.423
0.00610197 -0.91146 2.397
0.0125205 -0.904235 2.378
0.0188915 -0.899671 2.366
0.0252722 -0.897769 2.361
0.031639 -0.896247 2.357
0.0380325 -0.895865 2.356
0.044364 -0.894342 2.352
0.05076 -0.894339 2.352
0.0572288 -0.895478 2.355
0.063822 -0.898137 2.362
0.0703937 -0.900035 2.367
0.07696 -0.901552 2.371
0.0835833 -0.90345 2.376
0.0903473 -0.906488 2.384
0.0970735 -0.908765 2.39
0.29662 -0.922982 2.428
0.309837 -0.94312 2.481
-0.375813 -0.943999 2.466
-0.374502 -0.957789 2.502
-0.366528 -0.954735 2.494
-0.319989 -0.957481 2.501
-0.215681 -0.94728 2.474
-0.20828 -0.944224 2.466
-0.200923 -0.941169 2.458
-0.193768 -0.93888 2.452
-0.186797 -0.937355 2.448
-0.179774 -0.935448 2.443
-0.173133 -0.935455 2.443
-0.166287 -0.934313 2.44
-0.159719 -0.934703 2.441
-0.15302 -0.934327 2.44
-0.146387 -0.934333 2.44
-0.13981 -0.934722 2.441
-0.133283 -0.935493 2.443
-0.127003 -0.938179 2.45
-0.120686 -0.940865 2.457
-0.114145 -0.942019 2.46
-0.107543 -0.94279 2.462
-0.0985551 -0.92135 2.406
-0.0413725 -0.960821 2.509
-0.00707942 -0.937084 2.447
-0.000419146 -0.923681 2.412
0.00607114 -0.913341 2.385
0.0124883 -0.908362 2.372
0.0188427 -0.903766 2.36
0.0252175 -0.902233 2.356
0.0315705 -0.9007 2.352
0.0379339 -0.899933 2.35
0.0442488 -0.898399 2.346
0.050585 -0.897631 2.344
0.0570318 -0.898777 2.347
0.0635489 -0.900689 2.352
0.0702121 -0.904133 2.361
0.0767294 -0.905278 2.364
0.0833333 -0.90719 2.369
0.0900022 -0.909483 2.375
0.0967443 -0.91216 2.382
0.103351 -0.913304 2.385
0.290384 -0.975141 2.547
0.292753 -0.9602 2.508
0.301585 -0.924567 2.415
0.318738 -0.956333 2.498
-0.345463 -0.923333 2.395
-0.321549 -0.948821 2.461
-0.27698 -0.980509 2.543
-0.24486 -0.936964 2.43
-0.214278 -0.947801 2.458
-0.207512 -0.947423 2.457
-0.200098 -0.94396 2.448
-0.19297 -0.941654 2.442
-0.186027 -0.940119 2.438
-0.179252 -0.939354 2.436
-0.172488 -0.93859 2.434
-0.165803 -0.938211 2.433
-0.159255 -0.938603 2.434
-0.1527 -0.938995 2.435
-0.145841 -0.937458 2.431
-0.139232 -0.937464 2.431
-0.132786 -0.938626 2.434
-0.126687 -0.942488 2.444
-0.120239 -0.944036 2.448
-0.113629 -0.944426 2.449
-0.105879 -0.93479 2.424
-0.0925445 -0.933256 2.42
-0.0893392 -0.969896 2.515
-0.0415521 -0.971844 2.52
-0.000418259 -0.92827 2.407
0.00605815 -0.917857 2.38
0.0124825 -0.914386 2.371
0.0188259 -0.909372 2.358
0.0251735 -0.907057 2.352
0.0315154 -0.905513 2.348
0.0378677 -0.90474 2.346
0.0441714 -0.903196 2.342
0.0504749 -0.902037 2.339
0.0569078 -0.903192 2.342
0.063357 -0.904346 2.345
0.0699414 -0.907043 2.352
0.0764015 -0.907811 2.354
0.0831186 -0.911278 2.363
0.0896194 -0.912046 2.365
0.0962934 -0.914356 2.371
0.102913 -0.915894 2.375
0.109693 -0.918589 2.382
0.206673 -0.889955 2.308
0.267069 -0.972807 2.523
0.298113 -0.984724 2.554
-0.354755 -0.937191 2.414
-0.343292 -0.923998 2.38
-0.332362 -0.967513 2.492
-0.27512 -0.98079 2.526
-0.213922 -0.952897 2.454
-0.206998 -0.951739 2.451
-0.199764 -0.949028 2.444
-0.192726 -0.947094 2.439
-0.185638 -0.944771 2.433
-0.17873 -0.943224 2.429
-0.171773 -0.941289 2.424
-0.165116 -0.940907 2.423
-0.158529 -0.940913 2.423
-0.152005 -0.941307 2.424
-0.145355 -0.940924 2.423
-0.138825 -0.941318 2.424
-0.132726 -0.944818 2.433
-0.126682 -0.949095 2.444
-0.120479 -0.952595 2.453
-0.113718 -0.951823 2.451
-0.106355 -0.945614 2.435
-0.0959058 -0.973971 2.508
-0.0894776 -0.978247 2.519
-0.000426408 -0.953028 2.454
0.00607316 -0.92662 2.386
0.0124925 -0.92157 2.373
0.0188491 -0.91691 2.361
0.0251618 -0.913025 2.351
0.0314603 -0.910305 2.344
0.0377854 -0.909139 2.341
0.0440941 -0.907972 2.338
0.0504296 -0.907582 2.337
0.0568568 -0.908745 2.34
0.0632733 -0.909519 2.342
0.0697898 -0.911458 2.347
0.0762035 -0.911843 2.348
0.0828338 -0.914558 2.355
0.0893883 -0.916108 2.359
0.0960051 -0.918046 2.364
0.102606 -0.919596 2.368
0.10932 -0.921922 2.374
0.115677 -0.92114 2.372
0.122743 -0.925796 2.384
-0.307553 -0.939875 2.404
-0.307473 -0.981333 2.51
-0.206738 -0.957197 2.448
-0.199022 -0.952121 2.435
-0.191929 -0.949781 2.429
-0.184869 -0.947442 2.423
-0.178062 -0.946275 2.42
-0.171342 -0.945499 2.418
-0.164769 -0.945505 2.418
-0.158196 -0.945511 2.418
-0.151623 -0.945516 2.418
-0.14493 -0.94474 2.416
-0.138419 -0.945136 2.417
-0.132448 -0.949442 2.428
-0.126573 -0.954922 2.442
-0.120573 -0.96001 2.455
-0.114409 -0.964316 2.466
-0.101 -0.964324 2.466
-0.0946783 -0.968238 2.476
-0.0824941 -0.983496 2.515
-0.0343664 -0.976082 2.496
-0.000421004 -0.947538 2.423
0.006078 -0.933851 2.388
0.0125235 -0.930331 2.379
0.0188642 -0.924074 2.363
0.0251714 -0.919771 2.352
0.0314591 -0.916642 2.344
0.0377838 -0.915467 2.341
0.0440546 -0.91351 2.336
0.0503628 -0.912726 2.334
0.0567087 -0.912724 2.334
0.0631356 -0.913895 2.337
0.0695193 -0.914283 2.338
0.0759733 -0.915454 2.341
0.0825491 -0.917797 2.347
0.0891195 -0.919749 2.352
0.0956359 -0.920918 2.355
0.102168 -0.922088 2.358
0.108625 -0.922475 2.359
0.115672 -0.927554 2.372
-0.281629 -0.96965 2.463
-0.198688 -0.957134 2.431
-0.19129 -0.953203 2.421
-0.184405 -0.951635 2.417
-0.177541 -0.950066 2.413
-0.170982 -0.950071 2.413
-0.164491 -0.950471 2.414
-0.157994 -0.95087 2.415
-0.151304 -0.950088 2.413
-0.144684 -0.949699 2.412
-0.138357 -0.951279 2.416
-0.132334 -0.955221 2.426
-0.126154 -0.958376 2.434
-0.11993 -0.96153 2.442
-0.108443 -0.977682 2.483
-0.0930306 -0.958002 2.433
-0.0790798 -0.949346 2.411
-0.0266618 -0.950149 2.413
-0.000416123 -0.943064 2.395
0.00607267 -0.93952 2.386
0.012502 -0.935188 2.375
0.0188555 -0.930068 2.362
0.0251491 -0.925342 2.35
0.0314176 -0.921797 2.341
0.0377178 -0.920221 2.337
0.0440151 -0.919038 2.334
0.0502961 -0.917855 2.331
0.0566336 -0.917853 2.331
0.0629711 -0.917851 2.331
0.069368 -0.918636 2.333
0.0756784 -0.918239 2.332
0.0821942 -0.920205 2.337
0.0886994 -0.921777 2.341
0.0952668 -0.923742 2.346
0.101818 -0.925314 2.35
0.108253 -0.925704 2.351
0.114888 -0.927669 2.356
0.122631 -0.937902 2.382
-0.277277 -0.961258 2.425
-0.271134 -0.96285 2.429
-0.273899 -0.996947 2.515
-0.205627 -0.965293 2.435
-0.197946 -0.960146 2.422
-0.190889 -0.957773 2.416
-0.184322 -0.957779 2.416
-0.177241 -0.955009 2.409
-0.170622 -0.954618 2.408
-0.16394 -0.953831 2.406
-0.157727 -0.955818 2.411
-0.151173 -0.955823 2.411
-0.14444 -0.954639 2.408
-0.137951 -0.95504 2.409
-0.13173 -0.957423 2.415
-0.125683 -0.961392 2.425
-0.119386 -0.963775 2.431
-0.11621 -0.993116 2.505
-0.109313 -0.992327 2.503
-0.100583 -0.973697 2.456
-0.0864484 -0.964982 2.434
-0.077437 -0.936043 2.361
-0.0712891 -0.939614 2.37
-0.0329182 -0.947951 2.391
-0.0270364 -0.970154 2.447
-0.000415933 -0.949143 2.394
0.00602918 -0.939232 2.369
0.0124805 -0.940024 2.371
0.0188229 -0.934869 2.358
0.025116 -0.930508 2.347
0.031403 -0.927731 2.34
0.0377003 -0.926144 2.336
0.0439569 -0.92416 2.331
0.0501648 -0.92178 2.325
0.0564372 -0.920985 2.323
0.0627797 -0.921379 2.324
0.0691276 -0.921773 2.325
0.075416 -0.921374 2.324
0.0818044 -0.922165 2.326
0.0882415 -0.923351 2.329
0.0946137 -0.923744 2.33
0.101208 -0.92612 2.336
0.107742 -0.927702 2.34
0.114786 -0.933248 2.354
0.120104 -0.924919 2.333
0.135008 -0.940372 2.372
-0.358588 -0.922651 2.312
-0.276252 -0.94188 2.36
-0.280587 -0.979402 2.454
-0.253963 -0.930723 2.332
-0.217382 -0.995428 2.494
-0.185309 -0.969507 2.429
-0.177382 -0.962327 2.411
-0.170191 -0.95874 2.402
-0.16339 -0.957148 2.398
-0.157591 -0.961544 2.409
-0.151169 -0.962347 2.411
-0.144555 -0.961952 2.41
-0.138061 -0.962356 2.411
-0.131616 -0.963159 2.413
-0.125472 -0.966356 2.421
-0.119333 -0.969952 2.43
-0.10551 -0.964371 2.416
-0.0995972 -0.970761 2.432
-0.0856641 -0.962784 2.412
-0.0779919 -0.949215 2.378
-0.0663484 -0.967981 2.425
-0.0541717 -0.986347 2.471
-0.0382304 -0.925676 2.319
-0.0267151 -0.965196 2.418
-0.0203163 -0.97358 2.439
0.00602642 -0.945239 2.368
0.0124642 -0.945239 2.368
0.0187903 -0.93965 2.354
0.0251044 -0.936456 2.346
0.0313616 -0.932863 2.337
0.0376344 -0.930866 2.332
0.0438611 -0.928469 2.326
0.0500767 -0.926472 2.321
0.0563623 -0.926071 2.32
0.0625884 -0.924871 2.317
0.0688874 -0.924869 2.317
0.0751213 -0.924068 2.315
0.0814851 -0.924864 2.317
0.0878217 -0.92526 2.318
0.0941232 -0.925257 2.318
0.100641 -0.92725 2.323
0.10714 -0.928843 2.327
0.113954 -0.932831 2.337
0.120461 -0.934025 2.34
0.12357 -0.910072 2.28
0.258458 -0.974632 2.442
0.319498 -0.958608 2.402
-0.369907 -0.958256 2.385
-0.357635 -0.942992 2.347
-0.283036 -0.971581 2.418
-0.273264 -0.960336 2.39
-0.273912 -0.986057 2.454
-0.215197 -0.992135 2.469
-0.207136 -0.985711 2.453
-0.187821 -0.989343 2.462
-0.177819 -0.971265 2.417
-0.167777 -0.951579 2.368
-0.162499 -0.958415 2.385
-0.15739 -0.966859 2.406
-0.151603 -0.971686 2.418
-0.144731 -0.96968 2.413
-0.137885 -0.967675 2.408
-0.131067 -0.96567 2.403
-0.123965 -0.961253 2.392
-0.112909 -0.978139 2.434
-0.0860165 -0.973329 2.422
-0.0706827 -0.944399 2.35
-0.0605177 -0.987002 2.456
-0.0385258 -0.939183 2.337
-0.0324066 -0.946016 2.354
0.0061331 -0.968524 2.41
0.0124849 -0.953253 2.372
0.0188136 -0.947224 2.357
0.0251357 -0.944008 2.349
0.031374 -0.939587 2.338
0.037617 -0.936772 2.331
0.0437654 -0.932752 2.321
0.0500104 -0.931545 2.318
0.0562147 -0.929936 2.314
0.0623973 -0.928327 2.31
0.0686473 -0.927923 2.309
0.0748918 -0.927518 2.308
0.0812363 -0.92832 2.31
0.0874779 -0.927915 2.309
0.0937547 -0.927912 2.309
0.100205 -0.929517 2.313
0.106676 -0.931121 2.317
0.113316 -0.933931 2.324
0.216413 -0.942699 2.346
0.257259 -0.929 2.312
0.275544 -0.948678 2.361
-0.363545 -0.948146 2.344
-0.365708 -0.970801 2.4
-0.282563 -0.976517 2.414
-0.20079 -0.993978 2.457
-0.168623 -0.962845 2.38
-0.160928 -0.955568 2.362
-0.155816 -0.963663 2.382
-0.154608 -0.99765 2.466
-0.145926 -0.984304 2.433
-0.137939 -0.974598 2.409
-0.1315 -0.975411 2.411
-0.12308 -0.96085 2.375
-0.11525 -0.949526 2.347
-0.101617 -0.94144 2.327
-0.0945951 -0.934566 2.31
-0.0899597 -0.951965 2.353
-0.0846999 -0.964914 2.385
-0.0653319 -0.966134 2.388
-0.031965 -0.939439 2.322
-0.0262493 -0.961288 2.376
-0.000424404 -0.988396 2.443
0.00588861 -0.936205 2.314
0.0125792 -0.966953 2.39
0.0188449 -0.95522 2.361
0.0251349 -0.950364 2.349
0.0313462 -0.945104 2.336
0.0376158 -0.94308 2.331
0.0438206 -0.940246 2.324
0.0500519 -0.938627 2.32
0.056213 -0.936198 2.314
0.0623413 -0.933768 2.308
0.0685262 -0.932553 2.305
0.0747272 -0.931741 2.303
0.081058 -0.932548 2.305
0.0873238 -0.932546 2.305
0.0937519 -0.934161 2.309
0.100158 -0.935372 2.312
0.106627 -0.936987 2.316
0.11302 -0.937793 2.318
0.119321 -0.93779 2.318
0.128711 -0.960847 2.375
0.319754 -0.972445 2.404
0.32968 -0.982554 2.429
-0.166494 -0.957073 2.35
-0.162286 -0.97011 2.382
-0.152535 -0.990888 2.433
-0.136389 -0.970124 2.382
-0.129533 -0.967277 2.375
-0.123232 -0.968502 2.378
-0.106826 -0.937962 2.303
-0.0914864 -0.974626 2.393
-0.0864376 -0.991327 2.434
-0.077624 -0.964041 2.367
-0.0662875 -0.986853 2.423
-0.0196563 -0.961202 2.36
0.00613527 -0.981975 2.411
0.0125367 -0.970163 2.382
0.0189162 -0.965275 2.37
0.0251662 -0.957943 2.352
0.0313452 -0.951426 2.336
0.0375824 -0.948574 2.329
0.0437627 -0.945314 2.321
0.0499858 -0.943684 2.317
0.0561142 -0.940831 2.31
0.0622585 -0.938793 2.305
0.0684351 -0.93757 2.302
0.0746602 -0.93716 2.301
0.080915 -0.937158 2.301
0.087094 -0.936341 2.299
0.0935463 -0.938375 2.304
0.100069 -0.940816 2.31
0.106762 -0.944479 2.319
0.113456 -0.947734 2.327
0.120965 -0.957099 2.35
0.161866 -0.972554 2.388
0.169837 -0.981102 2.409
0.282309 -0.962698 2.364
0.314695 -0.963493 2.366
0.335723 -0.987512 2.425
-0.317964 -0.939162 2.291
-0.165569 -0.958109 2.337
-0.164395 -0.989271 2.413
-0.146159 -0.999121 2.437
-0.127675 -0.959769 2.341
-0.119654 -0.946653 2.309
-0.113378 -0.946656 2.309
-0.085725 -0.989717 2.414
-0.0794256 -0.992999 2.422
-0.0581471 -0.967585 2.36
0.012468 -0.971281 2.369
0.018772 -0.964311 2.352
0.0251548 -0.9639 2.351
0.0314517 -0.96103 2.344
0.0375653 -0.954469 2.328
0.0437238 -0.950778 2.319
0.0499197 -0.948726 2.314
0.0560883 -0.946675 2.309
0.0622568 -0.945034 2.305
0.0684332 -0.943802 2.302
0.0746257 -0.94298 2.3
0.0807722 -0.941748 2.297
0.0870159 -0.941746 2.297
0.0935032 -0.944204 2.303
0.100283 -0.949121 2.315
0.10699 -0.952808 2.324
0.113892 -0.957726 2.336
0.121168 -0.965102 2.354
0.284932 -0.978129 2.386
0.29381 -0.905553 2.209
0.327136 -0.968678 2.363
-0.344675 -0.93341 2.262
-0.354568 -0.995722 2.413
-0.260613 -0.963566 2.335
-0.251218 -0.952014 2.307
-0.210385 -0.996198 2.414
-0.157833 -0.995812 2.413
-0.151651 -0.998292 2.419
-0.119444 -0.951257 2.305
-0.113277 -0.952085 2.307
-0.106032 -0.94342 2.286
-0.0982729 -0.990472 2.4
-0.0709154 -0.973147 2.358
-0.0640135 -0.96572 2.34
0.00608405 -0.986776 2.391
0.0125413 -0.983474 2.383
0.0186518 -0.964489 2.337
0.0248546 -0.958711 2.323
0.0313436 -0.964075 2.336
0.0374836 -0.958709 2.323
0.0436473 -0.955407 2.315
0.04994 -0.955405 2.315
0.0560869 -0.952928 2.309
0.0622282 -0.950863 2.304
0.0683126 -0.948385 2.298
0.0745266 -0.947971 2.297
0.0806295 -0.946318 2.293
0.0869759 -0.947554 2.296
0.0934604 -0.950028 2.302
0.100367 -0.956217 2.317
0.107033 -0.959516 2.325
0.113889 -0.964053 2.336
0.134588 -0.976013 2.365
0.155284 -0.945462 2.291
0.253239 -0.962744 2.333
0.291192 -0.922281 2.235
0.304315 -0.944149 2.288
-0.359043 -0.961572 2.315
-0.344827 -0.939973 2.263
-0.347955 -0.965726 2.325
-0.1482 -0.982 2.364
-0.122136 -0.979103 2.357
-0.101956 -0.969971 2.335
-0.0972061 -0.986174 2.374
-0.0715754 -0.988673 2.38
-0.0447961 -0.969154 2.333
-0.0381085 -0.960431 2.312
0.0125673 -0.992005 2.388
0.0244047 -0.947555 2.281
0.037515 -0.965832 2.325
0.0440422 -0.970401 2.336
0.0503487 -0.969569 2.334
0.0563771 -0.964167 2.321
0.0624699 -0.960843 2.313
0.0686083 -0.958764 2.308
0.0747195 -0.956686 2.303
0.0808036 -0.954607 2.298
0.0872013 -0.956267 2.302
0.0939049 -0.960834 2.313
0.100842 -0.967063 2.328
0.106847 -0.964153 2.321
0.11257 -0.959166 2.309
0.149747 -0.997786 2.402
0.256492 -0.981535 2.363
0.313981 -0.942052 2.268
-0.377408 -0.982921 2.351
-0.254357 -0.952826 2.279
-0.139913 -0.97545 2.333
-0.0450064 -0.980074 2.344
-0.0386021 -0.979239 2.342
-0.0068826 -0.99513 2.38
0.038079 -0.986765 2.36
0.0450216 -0.998472 2.388
0.0503045 -0.975056 2.332
0.0568617 -0.978818 2.341
0.0694392 -0.976725 2.336
0.0752047 -0.969198 2.318
0.0806964 -0.959579 2.295
0.0881844 -0.973376 2.328
0.0951616 -0.980064 2.344
0.101013 -0.975044 2.332
0.105694 -0.95999 2.296
0.108668 -0.931975 2.229
0.117146 -0.951624 2.276
0.129563 -0.999705 2.391
0.137791 -0.966251 2.311
0.146877 -0.985064 2.356
0.213595 -0.997581 2.386
0.278462 -0.953237 2.28
0.310395 -0.956158 2.287
0.318964 -0.963265 2.304
-0.308974 -0.974998 2.317
-0.258263 -0.950596 2.259
-0.109505 -0.993568 2.361
-0.050215 -0.964122 2.291
-0.0445831 -0.977169 2.322
-0.0378597 -0.966649 2.297
-0.0131945 -0.989796 2.352
0.0497211 -0.970014 2.305
0.0546504 -0.946867 2.25
0.0744895 -0.966222 2.296
0.0807653 -0.966642 2.297
0.0885616 -0.983894 2.338
0.101618 -0.987258 2.346
0.106014 -0.96916 2.303
0.109934 -0.948959 2.255
0.267118 -0.963219 2.289
-0.360558 -0.951246 2.246
-0.30404 -0.965626 2.28
-0.147002 -0.993184 2.345
-0.0556035 -0.955932 2.257
-0.050521 -0.976263 2.305
-0.0372163 -0.956358 2.258
-0.0131269 -0.99109 2.34
0.0590096 -0.925436 2.185
0.258845 -0.961815 2.271
-0.373107 -0.958224 2.248
-0.359159 -0.937758 2.2
-0.357512 -0.949262 2.227
-0.334147 -0.969278 2.274
-0.32603 -0.98206 2.304
-0.145997 -0.992727 2.329
-0.139667 -0.992728 2.329
-0.100072 -0.976965 2.292
-0.0563418 -0.974841 2.287
-0.0435065 -0.96589 2.266
-0.0382541 -0.989335 2.321
0.0666715 -0.956084 2.243
0.0747144 -0.981658 2.303
0.0813607 -0.986346 2.314
0.0868924 -0.97782 2.294
-0.376469 -0.989223 2.306
-0.128413 -0.96216 2.243
