# .PCD v.7 - Point Cloud Data file format
VERSION .7
FIELDS x y z
SIZE 4 4 4
TYPE F F F
COUNT 1 1 1
WIDTH 1914
HEIGHT 1
VIEWPOINT 0 0 0 1 0 0 0
POINTS 1914
DATA ascii
-0.262845 0.444745 2.288
-0.256719 0.444959 2.289
-0.249274 0.442839 2.278
-0.241675 0.44033 2.265
-0.234874 0.439181 2.259
-0.228308 0.438421 2.255
-0.221467 0.437076 2.248
-0.215047 0.436509 2.245
-0.208642 0.435942 2.242
-0.202615 0.436152 2.243
-0.196318 0.435778 2.241
-0.190541 0.436571 2.245
-0.184578 0.436974 2.247
-0.178762 0.437766 2.251
-0.172386 0.437196 2.248
-0.165731 0.435848 2.241
-0.159042 0.434304 2.233
-0.153013 0.434511 2.234
-0.14678 0.434134 2.232
-0.140432 0.433367 2.228
-0.134106 0.4326 2.224
-0.128088 0.432804 2.225
-0.122065 0.433009 2.226
-0.116036 0.433213 2.227
-0.109853 0.432833 2.225
-0.10382 0.433036 2.226
-0.0977814 0.433238 2.227
-0.0920254 0.434802 2.235
-0.0861869 0.436171 2.242
-0.0803812 0.437928 2.251
-0.0744272 0.439102 2.257
-0.0685611 0.441053 2.267
-0.0624751 0.441837 2.271
-0.056367 0.44262 2.275
-0.0500384 0.441651 2.27
-0.0439494 0.442822 2.276
-0.0380761 0.446911 2.297
-0.277985 0.442706 2.31
-0.267925 0.436593 2.278
-0.260566 0.434695 2.268
-0.253822 0.433755 2.263
-0.247213 0.433007 2.259
-0.240199 0.431491 2.251
-0.23354 0.43055 2.246
-0.227515 0.430759 2.247
-0.220991 0.430009 2.243
-0.214967 0.430217 2.244
-0.208006 0.428507 2.235
-0.201275 0.427181 2.228
-0.195107 0.427004 2.227
-0.189707 0.428552 2.235
-0.184099 0.429717 2.241
-0.17814 0.430114 2.243
-0.171709 0.429361 2.239
-0.1653 0.428607 2.235
-0.158912 0.427852 2.231
-0.152956 0.428248 2.233
-0.14666 0.427684 2.23
-0.14038 0.42712 2.227
-0.134056 0.426363 2.223
-0.128156 0.426949 2.226
-0.122294 0.427726 2.23
-0.116357 0.42831 2.233
-0.110108 0.427744 2.23
-0.104015 0.427752 2.23
-0.0979648 0.427952 2.231
-0.0921974 0.429494 2.239
-0.0863475 0.430844 2.246
-0.0804948 0.432385 2.254
-0.0745651 0.433734 2.261
-0.0685666 0.434891 2.267
-0.0624526 0.435472 2.27
-0.0562476 0.435476 2.27
-0.0499322 0.434521 2.265
-0.0437791 0.434909 2.267
-0.0376978 0.436255 2.274
-0.0316889 0.439135 2.289
-0.0256201 0.442399 2.306
-0.019408 0.444511 2.317
-0.290345 0.43601 2.308
-0.284425 0.436597 2.311
-0.275839 0.433028 2.292
-0.267944 0.430402 2.278
-0.259091 0.426075 2.255
-0.252046 0.424582 2.247
-0.24559 0.424033 2.244
-0.238723 0.422728 2.237
-0.232309 0.422179 2.234
-0.225911 0.421628 2.231
-0.220514 0.422968 2.238
-0.214504 0.423173 2.239
-0.20737 0.42111 2.228
-0.200838 0.42018 2.223
-0.194771 0.420195 2.223
-0.188703 0.420209 2.223
-0.182634 0.420223 2.223
-0.176406 0.419859 2.221
-0.170879 0.421195 2.228
-0.165017 0.421775 2.231
-0.158782 0.421409 2.229
-0.152763 0.42161 2.23
-0.146409 0.420865 2.226
-0.140454 0.421255 2.228
-0.134247 0.420887 2.226
-0.128339 0.421465 2.229
-0.122303 0.421663 2.23
-0.116314 0.422051 2.232
-0.110166 0.421871 2.231
-0.104116 0.422068 2.232
-0.0981482 0.422643 2.235
-0.0923282 0.423974 2.242
-0.0863543 0.424738 2.246
-0.0803583 0.425501 2.25
-0.074406 0.426642 2.256
-0.0684813 0.42816 2.264
-0.0623474 0.428544 2.266
-0.0561033 0.42817 2.264
-0.0497818 0.427039 2.258
-0.0435508 0.426476 2.255
-0.0374024 0.426668 2.256
-0.0313869 0.428751 2.267
-0.0254333 0.432914 2.289
-0.019242 0.434429 2.297
-0.0129788 0.434998 2.3
-0.00672523 0.437268 2.312
-0.000407623 0.44124 2.333
-0.298481 0.423366 2.274
-0.293056 0.424504 2.28
-0.288101 0.426386 2.29
-0.28026 0.423985 2.277
-0.273331 0.422888 2.271
-0.265258 0.419927 2.255
-0.257501 0.417339 2.241
-0.249708 0.414563 2.226
-0.244185 0.415512 2.231
-0.237566 0.414599 2.226
-0.231078 0.413871 2.222
-0.225827 0.415377 2.23
-0.219742 0.415394 2.23
-0.213083 0.414292 2.224
-0.206083 0.412445 2.214
-0.19995 0.412273 2.213
-0.194084 0.412661 2.215
-0.188123 0.412861 2.216
-0.181991 0.412689 2.215
-0.175546 0.411771 2.21
-0.170048 0.413088 2.217
-0.164438 0.414219 2.223
-0.158509 0.414604 2.225
-0.152432 0.414615 2.225
-0.146222 0.414254 2.223
-0.140213 0.414451 2.224
-0.134258 0.414835 2.226
-0.128348 0.415404 2.229
-0.122368 0.415786 2.231
-0.116376 0.416168 2.233
-0.110273 0.416177 2.233
-0.104171 0.416185 2.233
-0.0981558 0.416566 2.235
-0.0922118 0.417319 2.239
-0.0862073 0.417885 2.242
-0.0801145 0.418078 2.243
-0.074148 0.419016 2.248
-0.0681842 0.42014 2.254
-0.0620221 0.420145 2.254
-0.0558599 0.42015 2.254
-0.0497196 0.42034 2.255
-0.0435929 0.420717 2.257
-0.0374385 0.420906 2.258
-0.031417 0.422959 2.269
-0.0252464 0.423521 2.272
-0.0191011 0.425014 2.28
-0.0129234 0.426879 2.29
-0.00667049 0.427439 2.293
-0.000401016 0.427812 2.295
0.00586916 0.427439 2.293
0.012139 0.427438 2.293
0.0185452 0.430606 2.31
0.0250551 0.43396 2.328
0.0315419 0.435635 2.337
-0.310481 0.416593 2.271
-0.301481 0.412761 2.25
-0.295876 0.413516 2.254
-0.291405 0.415921 2.267
-0.28485 0.41539 2.264
-0.278064 0.414493 2.259
-0.270823 0.412861 2.25
-0.263395 0.410861 2.239
-0.255681 0.40831 2.225
-0.249277 0.407778 2.222
-0.243327 0.407979 2.223
-0.23673 0.407078 2.218
-0.231095 0.407829 2.222
-0.226147 0.409865 2.233
-0.219857 0.409514 2.231
-0.212523 0.407144 2.218
-0.205446 0.40514 2.207
-0.199784 0.405889 2.211
-0.193661 0.40572 2.21
-0.187288 0.405 2.206
-0.181183 0.40483 2.205
-0.175003 0.404476 2.203
-0.169677 0.406141 2.212
-0.164228 0.407623 2.22
-0.15845 0.408369 2.224
-0.152375 0.408381 2.224
-0.146234 0.408209 2.223
-0.140287 0.408587 2.225
-0.134328 0.408965 2.227
-0.128531 0.409893 2.232
-0.122487 0.410086 2.233
-0.116385 0.410095 2.233
-0.110282 0.410104 2.233
-0.104132 0.409929 2.232
-0.0981195 0.410304 2.234
-0.0920543 0.410495 2.235
-0.0860601 0.411053 2.238
-0.0800493 0.41161 2.241
-0.0739889 0.411983 2.243
-0.0678567 0.411989 2.243
-0.0615592 0.410892 2.237
-0.0554925 0.411264 2.239
-0.049503 0.41237 2.245
-0.0435384 0.414027 2.254
-0.0375244 0.415683 2.263
-0.0313364 0.415686 2.263
-0.0251372 0.415504 2.262
-0.0190272 0.417159 2.271
-0.0128962 0.419732 2.285
-0.00665647 0.420284 2.288
-0.0003993 0.419733 2.285
0.00584146 0.419182 2.282
0.0121293 0.420834 2.291
0.0184262 0.421568 2.295
0.024788 0.423036 2.303
0.0311529 0.423952 2.308
0.0375451 0.424868 2.313
0.0439456 0.425599 2.317
-0.323442 0.411099 2.275
-0.316688 0.410398 2.271
-0.308041 0.407166 2.253
-0.300161 0.404837 2.24
-0.294584 0.40558 2.244
-0.289111 0.406504 2.249
-0.282605 0.405981 2.246
-0.276114 0.405458 2.243
-0.269638 0.404935 2.24
-0.262354 0.403146 2.23
-0.25501 0.401176 2.219
-0.248958 0.401193 2.219
-0.243016 0.401392 2.22
-0.237387 0.402132 2.224
-0.23184 0.403053 2.229
-0.226771 0.404878 2.239
-0.219479 0.402724 2.227
-0.212251 0.400569 2.215
-0.205182 0.398595 2.204
-0.199527 0.399333 2.208
-0.192886 0.398082 2.201
-0.186962 0.398277 2.202
-0.181196 0.398833 2.205
-0.175254 0.399027 2.206
-0.169537 0.399763 2.21
-0.163427 0.399595 2.209
-0.158034 0.401235 2.218
-0.152181 0.401789 2.221
-0.146245 0.402162 2.223
-0.140234 0.402354 2.224
-0.134157 0.402364 2.224
-0.128368 0.403279 2.229
-0.122496 0.404012 2.233
-0.11655 0.404564 2.236
-0.110389 0.404392 2.235
-0.10414 0.403857 2.232
-0.0979953 0.403684 2.231
-0.0918966 0.403691 2.231
-0.0859514 0.404422 2.235
-0.0800198 0.405333 2.24
-0.0739616 0.405701 2.242
-0.0676804 0.404801 2.237
-0.0613438 0.403359 2.229
-0.0553481 0.404087 2.233
-0.0494627 0.405901 2.243
-0.0435417 0.407895 2.254
-0.0374775 0.408984 2.26
-0.031325 0.409348 2.262
-0.0251503 0.409532 2.263
-0.0190203 0.4108 2.27
-0.0128633 0.41243 2.279
-0.00660462 0.410802 2.27
-0.000397234 0.411345 2.273
0.00582144 0.411526 2.274
0.0120985 0.413516 2.285
0.0183634 0.413877 2.287
0.0247038 0.415323 2.295
0.0310339 0.416045 2.299
0.0373532 0.416404 2.301
0.0435886 0.415858 2.298
0.0498724 0.415854 2.298
-0.328209 0.403112 2.265
-0.319766 0.400286 2.249
-0.312525 0.398883 2.241
-0.305054 0.397124 2.231
-0.298976 0.397144 2.231
-0.292503 0.39663 2.228
-0.287074 0.39754 2.233
-0.280611 0.397025 2.23
-0.274655 0.397222 2.231
-0.269416 0.398488 2.238
-0.262255 0.396903 2.229
-0.255143 0.395319 2.22
-0.249537 0.396049 2.224
-0.243471 0.396066 2.224
-0.237511 0.396261 2.225
-0.231336 0.3961 2.224
-0.225774 0.397007 2.229
-0.219298 0.39631 2.225
-0.212267 0.394545 2.215
-0.205755 0.393669 2.21
-0.199813 0.393862 2.211
-0.193251 0.392807 2.205
-0.186891 0.392109 2.201
-0.180963 0.3923 2.202
-0.175029 0.392491 2.203
-0.169012 0.392504 2.203
-0.162921 0.392338 2.202
-0.157618 0.394132 2.212
-0.152055 0.395391 2.219
-0.14619 0.395936 2.222
-0.140119 0.395947 2.222
-0.134167 0.396314 2.224
-0.12832 0.397036 2.228
-0.122505 0.397937 2.233
-0.116559 0.398481 2.236
-0.110398 0.398311 2.235
-0.104102 0.397606 2.231
-0.097827 0.396901 2.227
-0.0917388 0.396908 2.227
-0.0858042 0.397628 2.231
-0.0799187 0.398704 2.237
-0.0738353 0.398888 2.238
-0.0675949 0.39818 2.234
-0.0614311 0.397829 2.232
-0.0554763 0.398902 2.238
-0.0494886 0.399976 2.244
-0.0434678 0.401049 2.25
-0.0373643 0.401587 2.253
-0.0312582 0.402302 2.257
-0.0252078 0.404265 2.268
-0.0190805 0.405871 2.277
-0.012853 0.405873 2.277
-0.00658476 0.403378 2.263
-0.000396041 0.403913 2.266
0.00581933 0.40516 2.273
0.0120994 0.407299 2.285
0.0183488 0.407297 2.285
0.0246734 0.408543 2.292
0.0309148 0.408185 2.29
0.0372263 0.408717 2.293
0.0434402 0.408179 2.29
0.0497461 0.408532 2.292
0.0563315 0.410845 2.305
0.0632868 0.415118 2.329
-0.341467 0.397961 2.271
-0.333808 0.396231 2.261
-0.325622 0.393799 2.247
-0.316802 0.39049 2.228
-0.30906 0.388407 2.216
-0.30316 0.388603 2.217
-0.297254 0.388798 2.218
-0.291866 0.389694 2.223
-0.287094 0.391467 2.233
-0.280882 0.391311 2.232
-0.274305 0.390628 2.228
-0.268592 0.391173 2.231
-0.262744 0.391542 2.233
-0.255505 0.389807 2.223
-0.249779 0.39035 2.226
-0.243597 0.390192 2.225
-0.237314 0.389858 2.223
-0.230625 0.388822 2.217
-0.224778 0.389189 2.219
-0.218525 0.388854 2.217
-0.211995 0.387993 2.212
-0.206143 0.388358 2.214
-0.199647 0.387496 2.209
-0.192827 0.385931 2.2
-0.18631 0.384892 2.194
-0.180894 0.386134 2.201
-0.175042 0.386498 2.203
-0.168718 0.385808 2.199
-0.162563 0.38547 2.197
-0.156989 0.386534 2.203
-0.151313 0.387423 2.208
-0.145411 0.387785 2.21
-0.139688 0.388673 2.215
-0.133996 0.389736 2.221
-0.128157 0.390447 2.225
-0.12224 0.390983 2.228
-0.116255 0.391343 2.23
-0.110159 0.391351 2.23
-0.103969 0.391009 2.228
-0.0977026 0.390314 2.224
-0.0916222 0.390321 2.224
-0.0856183 0.390679 2.226
-0.0796033 0.391036 2.228
-0.073544 0.391218 2.229
-0.0674184 0.391047 2.228
-0.0614082 0.391579 2.231
-0.0554806 0.392812 2.238
-0.0495365 0.39422 2.246
-0.0434905 0.395101 2.251
-0.037417 0.395982 2.256
-0.0312744 0.396336 2.258
-0.0251542 0.397215 2.263
-0.0190149 0.39827 2.269
-0.0127975 0.39792 2.267
-0.00657362 0.396517 2.259
-0.000396071 0.397746 2.266
0.00582234 0.39915 2.274
0.0121057 0.401255 2.286
0.0183502 0.401079 2.285
0.0246646 0.40213 2.291
0.0309036 0.401777 2.289
0.0371642 0.401775 2.289
0.0433866 0.40142 2.287
0.0497065 0.401943 2.29
0.056067 0.402642 2.294
0.0625036 0.40369 2.3
0.0690026 0.404914 2.307
-0.336226 0.385747 2.236
-0.329105 0.384561 2.229
-0.32231 0.383719 2.224
-0.314689 0.381842 2.213
-0.307964 0.380999 2.208
-0.302223 0.381365 2.21
-0.296737 0.382075 2.214
-0.292017 0.38382 2.224
-0.286599 0.384702 2.229
-0.28002 0.384031 2.225
-0.273092 0.382842 2.218
-0.267888 0.384068 2.225
-0.261703 0.383914 2.224
-0.254948 0.382896 2.218
-0.248562 0.382395 2.215
-0.242519 0.382412 2.215
-0.236263 0.382083 2.213
-0.229913 0.381582 2.21
-0.223882 0.381598 2.21
-0.218146 0.382131 2.213
-0.211914 0.381801 2.211
-0.206344 0.382679 2.216
-0.199571 0.381312 2.208
-0.192753 0.379772 2.199
-0.186408 0.379095 2.195
-0.180989 0.380317 2.202
-0.174896 0.380157 2.201
-0.16827 0.378788 2.193
-0.162205 0.378627 2.192
-0.156573 0.379502 2.197
-0.150981 0.38055 2.203
-0.14483 0.380215 2.201
-0.138941 0.380571 2.203
-0.133463 0.382136 2.212
-0.127821 0.383355 2.219
-0.12192 0.383883 2.222
-0.115898 0.384064 2.223
-0.10997 0.384591 2.226
-0.103931 0.384772 2.227
-0.09771 0.384261 2.224
-0.0915467 0.383922 2.222
-0.0853555 0.383411 2.219
-0.0793234 0.38359 2.22
-0.0733845 0.384286 2.224
-0.0674538 0.385156 2.229
-0.0614404 0.385679 2.232
-0.0554104 0.386202 2.235
-0.0494299 0.387242 2.241
-0.0433199 0.387419 2.242
-0.0373037 0.388631 2.249
-0.0311798 0.38898 2.251
-0.0250894 0.390019 2.257
-0.0188906 0.389502 2.254
-0.0127646 0.390713 2.261
-0.00657703 0.390541 2.26
-0.000395227 0.390714 2.261
0.00581254 0.392269 2.27
0.0120695 0.393823 2.279
0.0183275 0.39434 2.282
0.0246341 0.395376 2.288
0.030933 0.395892 2.291
0.0371832 0.395717 2.29
0.0433519 0.39485 2.285
0.04958 0.394673 2.284
0.0558024 0.394497 2.283
0.0620463 0.394492 2.283
0.0683498 0.394833 2.285
0.0754475 0.39932 2.311
-0.342028 0.379304 2.234
-0.333992 0.377118 2.221
-0.326911 0.375951 2.214
-0.320737 0.375802 2.213
-0.314425 0.375482 2.211
-0.308682 0.375842 2.213
-0.302516 0.375692 2.212
-0.296891 0.376221 2.215
-0.291511 0.37709 2.22
-0.285461 0.377109 2.22
-0.27878 0.376279 2.215
-0.272988 0.376637 2.217
-0.267424 0.377335 2.221
-0.26125 0.377183 2.22
-0.253816 0.375161 2.208
-0.247232 0.374329 2.203
-0.241003 0.374006 2.201
-0.235639 0.375042 2.207
-0.229824 0.375398 2.209
-0.2241 0.375923 2.212
-0.217865 0.375599 2.21
-0.211833 0.375614 2.21
-0.205986 0.375969 2.212
-0.199314 0.374793 2.205
-0.192591 0.373447 2.197
-0.186082 0.372441 2.191
-0.180262 0.372794 2.193
-0.174034 0.372296 2.19
-0.167668 0.371459 2.185
-0.161995 0.372151 2.189
-0.156228 0.372672 2.192
-0.150855 0.374213 2.201
-0.144511 0.373374 2.196
-0.13851 0.373384 2.196
-0.132809 0.374244 2.201
-0.127485 0.376294 2.213
-0.12138 0.376133 2.212
-0.115333 0.376142 2.212
-0.109434 0.376661 2.215
-0.103565 0.377349 2.219
-0.0975415 0.377526 2.22
-0.0913475 0.377023 2.217
-0.0851695 0.376519 2.214
-0.0791507 0.376695 2.215
-0.073225 0.377381 2.219
-0.0674588 0.379087 2.229
-0.0614175 0.379432 2.231
-0.0554393 0.380287 2.236
-0.0494336 0.381141 2.241
-0.0433424 0.381485 2.243
-0.0373563 0.383019 2.252
-0.0312099 0.383191 2.253
-0.0250357 0.383023 2.252
-0.0187831 0.381154 2.241
-0.0126922 0.382346 2.248
-0.00657171 0.384047 2.258
-0.000396656 0.385918 2.269
0.00580785 0.385748 2.268
0.0120334 0.386428 2.272
0.0182486 0.386427 2.272
0.0245391 0.387616 2.279
0.0308678 0.388804 2.286
0.0370886 0.388462 2.284
0.0432983 0.388118 2.282
0.0494969 0.387775 2.28
0.0557332 0.387771 2.28
0.061915 0.387426 2.278
0.0681156 0.387251 2.277
0.0748655 0.389967 2.293
-0.339906 0.370888 2.22
-0.33281 0.369739 2.213
-0.32575 0.368591 2.206
-0.319453 0.368277 2.204
-0.313166 0.367963 2.202
-0.308004 0.368986 2.208
-0.301989 0.369005 2.208
-0.29624 0.369359 2.21
-0.290349 0.369545 2.211
-0.283679 0.368728 2.206
-0.277288 0.368245 2.203
-0.272267 0.369601 2.211
-0.267081 0.370789 2.218
-0.261032 0.370807 2.218
-0.253948 0.36932 2.209
-0.2468 0.367665 2.199
-0.240801 0.367681 2.199
-0.235335 0.368533 2.204
-0.230153 0.369887 2.212
-0.224116 0.369903 2.212
-0.217585 0.369082 2.207
-0.211368 0.368762 2.205
-0.205162 0.368442 2.203
-0.198966 0.368122 2.201
-0.192868 0.367968 2.2
-0.186775 0.367815 2.199
-0.18044 0.367158 2.195
-0.173888 0.366 2.188
-0.167526 0.365176 2.183
-0.161636 0.365355 2.184
-0.156168 0.366537 2.191
-0.150797 0.368054 2.2
-0.144719 0.367897 2.199
-0.138646 0.36774 2.198
-0.132698 0.367917 2.199
-0.127033 0.368931 2.205
-0.120841 0.368438 2.202
-0.11456 0.36761 2.197
-0.1088 0.368454 2.202
-0.103059 0.369466 2.208
-0.0972411 0.37031 2.213
-0.091107 0.369982 2.211
-0.0851374 0.370323 2.213
-0.0792637 0.371166 2.218
-0.0734615 0.372511 2.226
-0.067706 0.374357 2.237
-0.0616423 0.374696 2.239
-0.0555922 0.375202 2.242
-0.0494373 0.375039 2.241
-0.0432877 0.374875 2.24
-0.0372927 0.376217 2.248
-0.0311291 0.376052 2.247
-0.0249931 0.376221 2.248
-0.0188012 0.375386 2.243
-0.0126988 0.376392 2.249
-0.00658093 0.378401 2.261
-0.00039651 0.379572 2.268
0.00580573 0.379405 2.267
0.0119866 0.378735 2.263
0.0181455 0.378064 2.259
0.0244225 0.379569 2.268
0.0307621 0.38124 2.278
0.0370264 0.381573 2.28
0.0431876 0.3809 2.276
0.0493486 0.380395 2.273
0.0556885 0.381228 2.278
0.061974 0.381558 2.28
0.0683001 0.382055 2.283
0.0746424 0.382552 2.286
0.081284 0.384387 2.297
-0.349243 0.368278 2.241
-0.339162 0.364026 2.215
-0.332229 0.363061 2.209
-0.326214 0.363081 2.209
-0.318893 0.361622 2.2
-0.312759 0.361478 2.199
-0.307326 0.362155 2.203
-0.301871 0.362832 2.207
-0.295991 0.363016 2.208
-0.288792 0.361555 2.199
-0.283184 0.362067 2.202
-0.277306 0.36225 2.203
-0.272531 0.363912 2.213
-0.266617 0.364094 2.214
-0.260344 0.363783 2.212
-0.25385 0.363142 2.208
-0.247939 0.363324 2.209
-0.241693 0.363011 2.207
-0.235885 0.363356 2.209
-0.229856 0.363372 2.209
-0.223523 0.362894 2.206
-0.217501 0.362909 2.206
-0.211191 0.36243 2.203
-0.204618 0.361457 2.197
-0.198076 0.360484 2.191
-0.192268 0.360827 2.193
-0.186108 0.360511 2.191
-0.180206 0.360688 2.192
-0.173979 0.360207 2.189
-0.168229 0.360713 2.192
-0.162314 0.360889 2.193
-0.156535 0.361394 2.196
-0.150602 0.36157 2.197
-0.144664 0.361745 2.198
-0.138656 0.361755 2.198
-0.13301 0.362752 2.204
-0.127042 0.362926 2.205
-0.120794 0.362276 2.201
-0.114359 0.360968 2.193
-0.108511 0.36147 2.196
-0.102786 0.362465 2.202
-0.0971163 0.363789 2.21
-0.0910724 0.363796 2.21
-0.0850666 0.363967 2.211
-0.079198 0.364796 2.216
-0.0733018 0.365625 2.221
-0.0675293 0.367276 2.231
-0.0614541 0.367446 2.232
-0.0555219 0.368602 2.239
-0.0493527 0.368277 2.237
-0.0432909 0.368774 2.24
-0.0372622 0.369765 2.246
-0.0311314 0.369932 2.247
-0.0249505 0.36944 2.244
-0.0187859 0.368948 2.241
-0.0126828 0.369772 2.246
-0.00656686 0.371419 2.256
-0.000396714 0.37356 2.269
0.0058164 0.373889 2.271
0.0120034 0.373065 2.266
0.0181308 0.371582 2.257
0.0243489 0.372239 2.261
0.0306158 0.373225 2.267
0.0368667 0.373716 2.27
0.043077 0.373713 2.27
0.0493522 0.374204 2.273
0.055717 0.375188 2.279
0.0621144 0.376171 2.285
0.0683949 0.376331 2.286
0.0746806 0.376491 2.287
0.0812545 0.377967 2.296
-0.348174 0.361048 2.234
-0.339183 0.357998 2.215
-0.331648 0.356403 2.205
-0.326234 0.35707 2.209
-0.319203 0.355958 2.202
-0.312352 0.355008 2.196
-0.306369 0.355028 2.196
-0.300523 0.355209 2.197
-0.295072 0.355874 2.201
-0.288942 0.355731 2.2
-0.283974 0.357043 2.208
-0.277199 0.356091 2.202
-0.271441 0.356432 2.204
-0.264828 0.355641 2.199
-0.259184 0.356144 2.202
-0.253407 0.356484 2.204
-0.247843 0.357148 2.208
-0.242038 0.357488 2.21
-0.235687 0.357018 2.207
-0.229351 0.356549 2.204
-0.223538 0.356888 2.206
-0.217713 0.357226 2.208
-0.211302 0.356593 2.204
-0.204352 0.35499 2.194
-0.197638 0.353709 2.186
-0.19193 0.354208 2.189
-0.186461 0.355192 2.195
-0.180876 0.356014 2.2
-0.174786 0.355864 2.199
-0.168855 0.356038 2.2
-0.162695 0.355726 2.198
-0.156974 0.356384 2.202
-0.150544 0.355424 2.196
-0.144871 0.356244 2.201
-0.138792 0.356092 2.2
-0.133019 0.356749 2.204
-0.12659 0.355625 2.197
-0.120529 0.355472 2.196
-0.114211 0.354509 2.19
-0.108519 0.355488 2.196
-0.102747 0.356305 2.201
-0.0971233 0.357769 2.21
-0.0911202 0.357938 2.211
-0.0850728 0.357944 2.211
-0.0790608 0.358112 2.212
-0.0731421 0.358765 2.216
-0.0672012 0.359418 2.22
-0.0613209 0.360556 2.227
-0.0553524 0.36137 2.232
-0.049268 0.361535 2.233
-0.0431394 0.361377 2.232
-0.0370659 0.361704 2.234
-0.0309812 0.36203 2.236
-0.0248744 0.362194 2.237
-0.0187872 0.362843 2.241
-0.0126837 0.363654 2.246
-0.00654696 0.36414 2.249
-0.000393771 0.364626 2.252
0.00578353 0.365597 2.258
0.0119671 0.365759 2.259
0.0181723 0.366243 2.262
0.0244368 0.367375 2.269
0.0306991 0.368021 2.273
0.0368694 0.367533 2.27
0.0430801 0.36753 2.27
0.0494209 0.368498 2.276
0.0559167 0.370275 2.287
0.0622549 0.370756 2.29
0.0684896 0.37059 2.289
0.074784 0.370746 2.29
0.0814728 0.372684 2.302
-0.347415 0.354174 2.229
-0.338284 0.351017 2.209
-0.330916 0.349607 2.2
-0.325368 0.350104 2.203
-0.318788 0.349488 2.199
-0.311945 0.348554 2.193
-0.305412 0.347937 2.189
-0.29931 0.347797 2.188
-0.294286 0.348929 2.195
-0.289091 0.349901 2.201
-0.284635 0.351827 2.213
-0.27772 0.350732 2.206
-0.270719 0.349478 2.198
-0.263882 0.348382 2.191
-0.258024 0.348558 2.192
-0.252389 0.349052 2.195
-0.247074 0.350022 2.201
-0.241068 0.350038 2.201
-0.234955 0.349895 2.2
-0.22895 0.349911 2.2
-0.223553 0.35088 2.206
-0.218024 0.35169 2.211
-0.211604 0.351068 2.207
-0.204925 0.349969 2.2
-0.197922 0.348233 2.189
-0.192031 0.348405 2.19
-0.186049 0.348418 2.19
-0.180642 0.349544 2.197
-0.17448 0.349238 2.195
-0.168559 0.349409 2.196
-0.162707 0.349739 2.198
-0.156985 0.350386 2.202
-0.150486 0.349283 2.195
-0.14475 0.34993 2.199
-0.138991 0.350576 2.203
-0.133149 0.351063 2.206
-0.126484 0.349322 2.195
-0.120318 0.348853 2.192
-0.114376 0.34902 2.193
-0.108576 0.349665 2.197
-0.102848 0.350627 2.203
-0.0970423 0.35143 2.208
-0.0910443 0.351596 2.209
-0.0850019 0.351602 2.209
-0.078995 0.351767 2.21
-0.0730483 0.35225 2.213
-0.067085 0.352733 2.216
-0.061105 0.353215 2.219
-0.0552075 0.354333 2.226
-0.0491833 0.354815 2.229
-0.0430845 0.354818 2.229
-0.0370685 0.355617 2.234
-0.0309835 0.355937 2.236
-0.024854 0.35578 2.235
-0.0187467 0.355941 2.236
-0.0126395 0.356261 2.238
-0.00653288 0.357216 2.244
-0.00039275 0.357535 2.246
0.0057737 0.358808 2.254
0.0119521 0.359126 2.256
0.0181736 0.36008 2.262
0.0244386 0.361193 2.269
0.0306878 0.361668 2.272
0.0368396 0.361029 2.268
0.0431022 0.361504 2.271
0.0494679 0.362615 2.278
0.0558229 0.363407 2.283
0.062205 0.364199 2.288
0.0683748 0.363716 2.285
0.074822 0.364666 2.291
0.081514 0.366571 2.303
-0.347592 0.348263 2.23
-0.338917 0.345628 2.213
-0.331839 0.344555 2.206
-0.325093 0.343794 2.201
-0.318663 0.343345 2.198
-0.311822 0.342427 2.192
-0.305291 0.341821 2.188
-0.298645 0.341059 2.183
-0.293232 0.341702 2.187
-0.288322 0.34297 2.195
-0.283624 0.344551 2.205
-0.276982 0.343787 2.2
-0.269875 0.342398 2.191
-0.263056 0.341322 2.184
-0.256981 0.341182 2.183
-0.252061 0.342605 2.192
-0.246304 0.342934 2.194
-0.240427 0.343106 2.195
-0.23465 0.343434 2.197
-0.229694 0.345013 2.207
-0.224176 0.345809 2.212
-0.218038 0.345668 2.211
-0.211905 0.345526 2.21
-0.205684 0.345227 2.208
-0.199021 0.344146 2.201
-0.192483 0.343221 2.195
-0.186656 0.343546 2.197
-0.180901 0.344028 2.2
-0.174492 0.343258 2.195
-0.168187 0.342644 2.191
-0.1622 0.342656 2.191
-0.156497 0.343292 2.195
-0.150291 0.342833 2.192
-0.144562 0.343469 2.196
-0.138874 0.344261 2.201
-0.132857 0.34427 2.201
-0.12632 0.342872 2.192
-0.120216 0.342567 2.19
-0.114332 0.342888 2.192
-0.108633 0.343835 2.198
-0.102715 0.344155 2.2
-0.0969173 0.344944 2.205
-0.0908446 0.344794 2.204
-0.0847001 0.344331 2.201
-0.0789291 0.345432 2.208
-0.0729875 0.345907 2.211
-0.0670897 0.346694 2.216
-0.0611093 0.347168 2.219
-0.0552859 0.348736 2.229
-0.0492089 0.348897 2.23
-0.0430103 0.348118 2.225
-0.0369218 0.34812 2.225
-0.0309441 0.349375 2.233
-0.024878 0.350002 2.237
-0.0187648 0.35016 2.238
-0.0126517 0.350474 2.24
-0.00652752 0.350788 2.242
-0.000392603 0.351258 2.245
0.0057613 0.351883 2.249
0.011953 0.352978 2.256
0.0181749 0.353916 2.262
0.0244295 0.354853 2.268
0.03069 0.355477 2.272
0.0368747 0.355161 2.27
0.0430863 0.355159 2.27
0.0494714 0.356407 2.278
0.0558269 0.357185 2.283
0.0621822 0.357807 2.287
0.06826 0.356864 2.281
0.074664 0.357641 2.286
0.0812012 0.358887 2.294
-0.356062 0.344473 2.245
-0.346522 0.341118 2.223
-0.338325 0.338989 2.209
-0.331257 0.337935 2.202
-0.324078 0.336727 2.194
-0.317087 0.335672 2.187
-0.310845 0.335384 2.185
-0.304892 0.335403 2.185
-0.299485 0.336035 2.189
-0.293384 0.3359 2.188
-0.287683 0.336225 2.19
-0.281198 0.335629 2.186
-0.275741 0.33626 2.19
-0.269892 0.336431 2.191
-0.263434 0.335834 2.187
-0.256997 0.335236 2.183
-0.251617 0.33602 2.188
-0.246208 0.336804 2.193
-0.240333 0.336973 2.194
-0.234879 0.337757 2.199
-0.229917 0.339308 2.209
-0.223684 0.339015 2.207
-0.217362 0.338569 2.204
-0.211344 0.338583 2.204
-0.205418 0.33875 2.205
-0.198672 0.337535 2.197
-0.191706 0.335858 2.186
-0.185989 0.336331 2.189
-0.180502 0.337265 2.195
-0.174743 0.337738 2.198
-0.168275 0.336828 2.192
-0.162211 0.336685 2.191
-0.156151 0.336542 2.19
-0.150233 0.336707 2.191
-0.144375 0.337024 2.193
-0.138695 0.337802 2.198
-0.132685 0.337811 2.198
-0.126502 0.337359 2.195
-0.120334 0.336906 2.192
-0.114444 0.337222 2.194
-0.108591 0.337691 2.197
-0.102862 0.33862 2.203
-0.0970559 0.339396 2.208
-0.0908922 0.338941 2.205
-0.0848984 0.339101 2.206
-0.0789346 0.339414 2.208
-0.0729596 0.339727 2.21
-0.0670339 0.340347 2.214
-0.0610034 0.340505 2.215
-0.0551905 0.342046 2.225
-0.0490358 0.341589 2.222
-0.0428393 0.340669 2.216
-0.0368249 0.341133 2.219
-0.0308909 0.342673 2.229
-0.0248464 0.343444 2.234
-0.0187158 0.343138 2.232
-0.012613 0.343293 2.233
-0.00653381 0.344984 2.244
-0.000393855 0.346215 2.252
0.00578476 0.347137 2.258
0.0119909 0.347905 2.263
0.0181681 0.347596 2.261
0.024399 0.34821 2.265
0.0306651 0.348976 2.27
0.0369098 0.349282 2.272
0.0430893 0.348971 2.27
0.0494098 0.349737 2.275
0.0557574 0.350502 2.28
0.0622138 0.351727 2.288
0.0683546 0.351108 2.284
0.0747999 0.352025 2.29
0.0814193 0.353557 2.3
-0.356083 0.33836 2.245
-0.34623 0.334763 2.221
-0.337732 0.332372 2.205
-0.330524 0.331185 2.197
-0.323507 0.330149 2.19
-0.317106 0.329716 2.187
-0.311291 0.329886 2.188
-0.305747 0.330357 2.191
-0.300187 0.330827 2.194
-0.293671 0.330242 2.19
-0.287044 0.329506 2.185
-0.2798 0.328016 2.175
-0.274499 0.328787 2.18
-0.269662 0.330161 2.189
-0.263692 0.330178 2.189
-0.257249 0.329591 2.185
-0.251633 0.330059 2.188
-0.246448 0.331131 2.195
-0.241115 0.332052 2.201
-0.234894 0.331765 2.199
-0.229724 0.332987 2.207
-0.222786 0.331644 2.198
-0.216588 0.331356 2.196
-0.210591 0.33137 2.196
-0.20478 0.331686 2.198
-0.198324 0.330944 2.193
-0.191456 0.329448 2.183
-0.185747 0.329913 2.186
-0.180349 0.330982 2.193
-0.174516 0.331295 2.195
-0.16821 0.330703 2.191
-0.161851 0.329959 2.186
-0.156233 0.330725 2.191
-0.150243 0.330735 2.191
-0.144187 0.330594 2.19
-0.138199 0.330603 2.19
-0.132332 0.330914 2.192
-0.126568 0.331527 2.196
-0.120562 0.331535 2.196
-0.114608 0.331694 2.197
-0.108797 0.332306 2.201
-0.102869 0.332615 2.203
-0.0969307 0.332924 2.205
-0.0907336 0.332326 2.201
-0.0847118 0.332332 2.201
-0.0786541 0.332187 2.2
-0.0726015 0.332041 2.199
-0.0667357 0.332801 2.204
-0.0608975 0.333862 2.211
-0.0550207 0.334923 2.218
-0.0488627 0.334323 2.214
-0.0427843 0.334175 2.213
-0.0368108 0.334933 2.218
-0.0309207 0.336898 2.231
-0.0247703 0.336296 2.227
-0.0186752 0.336298 2.227
-0.0125913 0.336601 2.229
-0.00651971 0.338112 2.239
-0.000392833 0.339169 2.246
0.00576723 0.339924 2.251
0.0119758 0.341282 2.26
0.0181774 0.341583 2.262
0.0243899 0.341884 2.264
0.0306537 0.342637 2.269
0.0369286 0.343239 2.273
0.0431493 0.343236 2.273
0.0494132 0.343535 2.275
0.0558347 0.344739 2.283
0.0622997 0.345943 2.291
0.0685988 0.346089 2.292
0.0750664 0.34699 2.298
0.0819914 0.349703 2.316
-0.356579 0.332691 2.248
-0.345627 0.328123 2.217
-0.336833 0.325478 2.199
-0.329942 0.32461 2.193
-0.323378 0.324037 2.189
-0.316835 0.323463 2.185
-0.310882 0.323482 2.185
-0.305766 0.324389 2.191
-0.300616 0.325295 2.197
-0.294359 0.325017 2.195
-0.287718 0.324294 2.19
-0.280718 0.323127 2.182
-0.274642 0.322996 2.181
-0.269433 0.323901 2.187
-0.263949 0.32451 2.191
-0.257736 0.32423 2.189
-0.251879 0.324394 2.19
-0.246352 0.325002 2.194
-0.240911 0.325758 2.199
-0.234589 0.325329 2.196
-0.228281 0.324899 2.193
-0.221382 0.32358 2.184
-0.215714 0.324038 2.187
-0.209933 0.324348 2.189
-0.204886 0.325843 2.199
-0.198789 0.325708 2.198
-0.192082 0.324535 2.19
-0.185504 0.32351 2.183
-0.179786 0.323967 2.186
-0.17413 0.324571 2.19
-0.167991 0.324286 2.188
-0.16201 0.324297 2.188
-0.156172 0.324604 2.19
-0.150459 0.325207 2.194
-0.144328 0.32492 2.192
-0.138335 0.32493 2.192
-0.132401 0.325087 2.193
-0.126634 0.325688 2.197
-0.12068 0.325845 2.198
-0.114772 0.326149 2.2
-0.108705 0.326009 2.199
-0.102596 0.325719 2.197
-0.0964977 0.325429 2.195
-0.0904924 0.325436 2.195
-0.0847946 0.326628 2.203
-0.0787309 0.326485 2.202
-0.0727055 0.32649 2.202
-0.0667706 0.32694 2.205
-0.0608741 0.327685 2.21
-0.0548757 0.327986 2.212
-0.0487777 0.327693 2.21
-0.0427872 0.328141 2.213
-0.0368466 0.329182 2.22
-0.0308397 0.329925 2.225
-0.0246941 0.329186 2.22
-0.018601 0.328891 2.218
-0.0125639 0.329782 2.224
-0.00650851 0.331413 2.235
-0.000392686 0.332896 2.245
0.00576763 0.333786 2.251
0.0119714 0.334972 2.259
0.0181546 0.33497 2.259
0.0243808 0.335562 2.263
0.0306558 0.33645 2.269
0.0369474 0.337189 2.274
0.0431522 0.337038 2.273
0.0493514 0.336887 2.272
0.0557162 0.337773 2.278
0.0622224 0.339251 2.288
0.0686633 0.340137 2.294
0.0752675 0.341614 2.304
0.0824926 0.345464 2.33
-0.355648 0.325696 2.242
-0.345335 0.321794 2.215
-0.337006 0.319634 2.2
-0.329961 0.318636 2.193
-0.323397 0.318074 2.189
-0.317289 0.317947 2.188
-0.311328 0.317966 2.188
-0.305784 0.31842 2.191
-0.300086 0.318728 2.193
-0.294108 0.318746 2.193
-0.287604 0.318182 2.189
-0.28125 0.317763 2.186
-0.27491 0.317344 2.183
-0.26871 0.317069 2.181
-0.263001 0.317376 2.183
-0.257634 0.318119 2.188
-0.252354 0.319007 2.194
-0.246592 0.319313 2.196
-0.240817 0.319619 2.198
-0.234176 0.318762 2.192
-0.227671 0.318049 2.187
-0.221193 0.317336 2.182
-0.216023 0.318513 2.19
-0.210042 0.318527 2.19
-0.204806 0.319704 2.198
-0.198982 0.320007 2.2
-0.192796 0.319729 2.198
-0.186196 0.318723 2.191
-0.179962 0.318298 2.188
-0.173823 0.318019 2.186
-0.167848 0.31803 2.186
-0.161873 0.31804 2.186
-0.156111 0.318487 2.189
-0.150194 0.318643 2.19
-0.14414 0.318507 2.189
-0.138155 0.318516 2.189
-0.132228 0.318671 2.19
-0.126527 0.319407 2.195
-0.120798 0.320143 2.2
-0.114728 0.320005 2.199
-0.108663 0.319867 2.198
-0.102323 0.318855 2.191
-0.0960645 0.317988 2.185
-0.0901274 0.31814 2.186
-0.0845693 0.319747 2.197
-0.0786647 0.320189 2.2
-0.0726774 0.32034 2.201
-0.0667448 0.320781 2.204
-0.0607681 0.321076 2.206
-0.0547801 0.321371 2.208
-0.0487148 0.321229 2.207
-0.0428868 0.322833 2.218
-0.0368989 0.323564 2.223
-0.0308834 0.324294 2.228
-0.024718 0.323422 2.222
-0.0186442 0.323569 2.223
-0.0125704 0.323862 2.225
-0.00650604 0.325172 2.234
-0.000392362 0.326482 2.243
0.00577059 0.327792 2.252
0.0119669 0.328665 2.258
0.0181317 0.328373 2.256
0.0242963 0.328226 2.255
0.0305363 0.328952 2.26
0.0368361 0.329968 2.267
0.0430792 0.330257 2.269
0.0493331 0.330545 2.271
0.0557444 0.331706 2.279
0.0622266 0.333012 2.288
0.0687578 0.334317 2.297
0.0754686 0.336204 2.31
0.0826044 0.339547 2.333
-0.354081 0.318164 2.232
-0.345354 0.31576 2.215
-0.337638 0.314211 2.204
-0.33013 0.312804 2.194
-0.324007 0.31268 2.193
-0.317887 0.312556 2.192
-0.31163 0.312289 2.19
-0.305802 0.31245 2.191
-0.29983 0.312467 2.191
-0.294394 0.313055 2.195
-0.287753 0.312359 2.19
-0.281266 0.311806 2.186
-0.274423 0.310824 2.179
-0.26774 0.309984 2.173
-0.262174 0.310428 2.176
-0.256708 0.311014 2.18
-0.251335 0.311743 2.185
-0.245708 0.312186 2.188
-0.240174 0.312772 2.192
-0.234297 0.312929 2.193
-0.227373 0.311659 2.184
-0.221207 0.311388 2.182
-0.215642 0.311972 2.186
-0.210056 0.312556 2.19
-0.204073 0.312569 2.19
-0.198452 0.313153 2.194
-0.192721 0.313593 2.197
-0.186633 0.313463 2.196
-0.180385 0.313046 2.193
-0.174152 0.312629 2.19
-0.168013 0.312355 2.188
-0.162179 0.312651 2.19
-0.155907 0.31209 2.186
-0.14993 0.3121 2.186
-0.143689 0.311538 2.182
-0.138037 0.312261 2.187
-0.132056 0.31227 2.187
-0.126535 0.313421 2.195
-0.120531 0.313429 2.195
-0.114579 0.313579 2.196
-0.108324 0.312872 2.191
-0.102143 0.312308 2.187
-0.0960709 0.312029 2.185
-0.0900921 0.312035 2.185
-0.084575 0.313755 2.197
-0.0785984 0.313903 2.198
-0.0726492 0.314193 2.2
-0.0666584 0.314341 2.201
-0.0606344 0.314345 2.201
-0.054759 0.315206 2.207
-0.0488064 0.315781 2.211
-0.0428897 0.316783 2.218
-0.0368681 0.317214 2.221
-0.0307746 0.317074 2.22
-0.0246863 0.316933 2.219
-0.0185951 0.316649 2.217
-0.0125769 0.317935 2.226
-0.00650356 0.318936 2.233
-0.000392564 0.320507 2.244
0.00577354 0.321792 2.253
0.011973 0.322649 2.259
0.0181409 0.322362 2.257
0.024341 0.322646 2.259
0.0305789 0.323216 2.263
0.0368874 0.324213 2.27
0.0431011 0.324211 2.27
0.0494667 0.325207 2.277
0.0558215 0.325918 2.282
0.0622035 0.326628 2.287
0.0686426 0.327481 2.293
0.0753103 0.32919 2.305
0.0824683 0.332612 2.329
-0.353308 0.311384 2.227
-0.34475 0.309166 2.211
-0.337044 0.307647 2.2
-0.329397 0.306127 2.189
-0.323139 0.305866 2.187
-0.317615 0.306303 2.19
-0.311648 0.306321 2.19
-0.305819 0.306479 2.191
-0.300121 0.306776 2.193
-0.293875 0.306513 2.191
-0.28685 0.305411 2.183
-0.280125 0.304588 2.177
-0.274313 0.304744 2.178
-0.268249 0.30462 2.177
-0.26219 0.304496 2.176
-0.25637 0.304652 2.177
-0.250545 0.304807 2.178
-0.245386 0.305801 2.185
-0.238984 0.305256 2.181
-0.233671 0.30611 2.187
-0.227491 0.305844 2.185
-0.22122 0.305438 2.182
-0.215163 0.305312 2.181
-0.209109 0.305185 2.18
-0.202875 0.304777 2.177
-0.197379 0.30549 2.182
-0.191768 0.306062 2.186
-0.186389 0.307054 2.193
-0.180231 0.306785 2.191
-0.173925 0.306236 2.187
-0.167716 0.305827 2.184
-0.161671 0.305697 2.183
-0.155489 0.305287 2.18
-0.149459 0.305157 2.179
-0.143237 0.304606 2.175
-0.137604 0.305315 2.18
-0.131944 0.306024 2.185
-0.126486 0.307293 2.194
-0.120429 0.307161 2.193
-0.114221 0.306608 2.189
-0.108183 0.306475 2.188
-0.102243 0.306622 2.189
-0.096385 0.307049 2.192
-0.0905104 0.307475 2.195
-0.0845805 0.307761 2.197
-0.0784963 0.307486 2.195
-0.0725219 0.307631 2.196
-0.0664508 0.307356 2.194
-0.0605006 0.30764 2.196
-0.0546137 0.308344 2.201
-0.0488096 0.309748 2.211
-0.0427765 0.309892 2.212
-0.0367378 0.310034 2.213
-0.0307211 0.310457 2.216
-0.024688 0.310879 2.219
-0.0186383 0.311301 2.222
-0.0125777 0.311862 2.226
-0.00650108 0.312703 2.232
-0.000391015 0.313124 2.235
0.00574317 0.313964 2.241
0.0119155 0.314944 2.248
0.018102 0.315504 2.252
0.024321 0.316203 2.257
0.0305944 0.317182 2.264
0.0369223 0.3183 2.272
0.0432178 0.318858 2.276
0.0495569 0.319555 2.281
0.0559475 0.320393 2.287
0.0623436 0.321089 2.292
0.0687968 0.321925 2.298
0.0755113 0.323742 2.311
0.0824383 0.326118 2.328
-0.344301 0.30273 2.208
-0.336296 0.300966 2.195
-0.329415 0.300162 2.189
-0.323452 0.30018 2.189
-0.317923 0.300609 2.192
-0.311666 0.300352 2.19
-0.305558 0.300233 2.189
-0.299317 0.299975 2.187
-0.293623 0.300267 2.189
-0.286209 0.298774 2.178
-0.279884 0.298379 2.175
-0.274078 0.298532 2.176
-0.268758 0.299234 2.181
-0.262326 0.298701 2.177
-0.256268 0.298579 2.176
-0.250559 0.298868 2.178
-0.244952 0.299295 2.181
-0.238669 0.298897 2.178
-0.233471 0.299872 2.185
-0.227401 0.299749 2.184
-0.221639 0.300037 2.186
-0.21488 0.298952 2.178
-0.208834 0.298827 2.177
-0.20298 0.298977 2.178
-0.197482 0.299676 2.183
-0.191517 0.299688 2.183
-0.185636 0.299837 2.184
-0.179585 0.299711 2.183
-0.173379 0.29931 2.18
-0.167343 0.299183 2.179
-0.161385 0.299193 2.179
-0.155499 0.299341 2.18
-0.1494 0.299076 2.178
-0.143312 0.29881 2.176
-0.137739 0.299643 2.182
-0.131771 0.299651 2.182
-0.126206 0.300621 2.189
-0.119888 0.299805 2.183
-0.113915 0.299812 2.183
-0.107893 0.299682 2.182
-0.102296 0.300787 2.19
-0.0964352 0.301206 2.193
-0.0905574 0.301624 2.196
-0.084278 0.300668 2.189
-0.0782868 0.300673 2.189
-0.0724605 0.301365 2.194
-0.0664248 0.301232 2.193
-0.0603392 0.300824 2.19
-0.0544932 0.301652 2.196
-0.0488128 0.303715 2.211
-0.0427599 0.303718 2.211
-0.0366903 0.303584 2.21
-0.03064 0.303586 2.21
-0.0246896 0.304824 2.219
-0.0186311 0.3051 2.221
-0.0125334 0.304689 2.218
-0.00645198 0.304277 2.215
-0.000388241 0.304827 2.219
0.00571791 0.306475 2.231
0.0118951 0.308261 2.244
0.0181112 0.309496 2.253
0.024355 0.310456 2.26
0.0307181 0.31224 2.273
0.0370547 0.3132 2.28
0.0434106 0.314021 2.286
0.0496687 0.314018 2.286
0.0559512 0.314152 2.287
0.0622661 0.314423 2.289
0.0688013 0.315655 2.298
0.0756796 0.318123 2.316
0.0828686 0.321414 2.34
-0.344319 0.296712 2.208
-0.336928 0.295521 2.199
-0.329584 0.29433 2.19
-0.323322 0.294079 2.188
-0.316636 0.293424 2.183
-0.310545 0.293307 2.182
-0.305016 0.293728 2.185
-0.29906 0.293745 2.185
-0.293238 0.293896 2.186
-0.286751 0.293374 2.182
-0.280415 0.292987 2.179
-0.275101 0.293675 2.184
-0.269266 0.293825 2.185
-0.262823 0.293303 2.181
-0.256518 0.292914 2.178
-0.250804 0.293198 2.18
-0.245079 0.293481 2.182
-0.238793 0.293092 2.179
-0.23263 0.292837 2.177
-0.22731 0.293658 2.183
-0.221247 0.293536 2.182
-0.215287 0.293549 2.182
-0.208559 0.292486 2.174
-0.202713 0.292633 2.175
-0.196951 0.292914 2.177
-0.190914 0.292791 2.176
-0.184712 0.292399 2.173
-0.178608 0.292141 2.171
-0.172594 0.292017 2.17
-0.166585 0.291893 2.169
-0.160803 0.292172 2.171
-0.154938 0.292316 2.172
-0.149272 0.292864 2.176
-0.143584 0.293411 2.18
-0.137811 0.293824 2.183
-0.132021 0.294236 2.186
-0.125925 0.293975 2.184
-0.11995 0.293982 2.184
-0.113923 0.293855 2.183
-0.108048 0.294131 2.185
-0.102349 0.294946 2.191
-0.0964413 0.295221 2.193
-0.0906044 0.295765 2.197
-0.0842833 0.294694 2.189
-0.078256 0.294565 2.188
-0.0724321 0.295242 2.193
-0.0664291 0.295247 2.193
-0.0603707 0.294982 2.191
-0.0543478 0.294851 2.19
-0.0486393 0.296604 2.203
-0.042666 0.297011 2.206
-0.0366595 0.297283 2.208
-0.0306835 0.297958 2.213
-0.0247245 0.299172 2.222
-0.0186659 0.299577 2.225
-0.0125398 0.29877 2.219
-0.00643492 0.297424 2.209
-0.000386516 0.297424 2.209
0.00569521 0.299175 2.222
0.0118534 0.301059 2.236
0.01804 0.302135 2.244
0.0242595 0.303076 2.251
0.0305984 0.304825 2.264
0.0369758 0.306304 2.275
0.0433754 0.307513 2.284
0.0496719 0.307779 2.286
0.0560526 0.308449 2.291
0.0624877 0.309253 2.297
0.0691051 0.31073 2.308
0.0761746 0.313822 2.331
0.0834759 0.317317 2.357
-0.344806 0.291089 2.211
-0.337405 0.289922 2.202
-0.330655 0.289282 2.197
-0.324079 0.288772 2.193
-0.316508 0.287341 2.182
-0.309992 0.286832 2.178
-0.304475 0.287243 2.181
-0.297845 0.286602 2.176
-0.292181 0.286881 2.178
-0.28611 0.286766 2.177
-0.281203 0.287835 2.185
-0.274739 0.287324 2.181
-0.268666 0.287208 2.18
-0.262356 0.286827 2.177
-0.256651 0.287106 2.179
-0.251049 0.287516 2.182
-0.24498 0.287398 2.181
-0.238807 0.287148 2.179
-0.23243 0.286635 2.175
-0.226491 0.286648 2.175
-0.22055 0.286661 2.175
-0.215399 0.287729 2.183
-0.209051 0.287214 2.179
-0.203471 0.287753 2.183
-0.196872 0.286842 2.176
-0.191189 0.287249 2.179
-0.184808 0.286602 2.174
-0.178619 0.286217 2.171
-0.172684 0.286227 2.171
-0.166749 0.286238 2.171
-0.161035 0.286643 2.174
-0.154876 0.286257 2.171
-0.14935 0.287058 2.177
-0.143659 0.287594 2.181
-0.137946 0.28813 2.185
-0.131969 0.288138 2.185
-0.125991 0.288146 2.185
-0.119958 0.288022 2.184
-0.114034 0.288161 2.185
-0.108104 0.2883 2.186
-0.102216 0.28857 2.188
-0.0963154 0.28884 2.19
-0.0905276 0.289505 2.195
-0.0842886 0.288719 2.189
-0.0782252 0.28846 2.187
-0.0723045 0.288729 2.189
-0.0664635 0.289393 2.194
-0.0602918 0.288605 2.188
-0.0543016 0.288609 2.188
-0.0485099 0.289799 2.197
-0.0427074 0.291253 2.208
-0.0367116 0.291651 2.211
-0.0306577 0.291653 2.211
-0.0246482 0.292183 2.215
-0.0185748 0.292052 2.214
-0.0124954 0.291658 2.211
-0.00642367 0.290867 2.205
-0.000387066 0.29179 2.212
0.00569557 0.293109 2.222
0.0118382 0.29456 2.233
0.018017 0.295614 2.241
0.0242287 0.296536 2.248
0.0306138 0.298777 2.265
0.0369294 0.299698 2.272
0.0433781 0.301278 2.284
0.049762 0.302067 2.29
0.056203 0.302987 2.297
0.0627637 0.304302 2.307
0.0694388 0.305881 2.319
0.0764408 0.308515 2.339
0.0840833 0.313126 2.374
-0.353859 0.287493 2.23
-0.344668 0.284932 2.21
-0.338343 0.284692 2.208
-0.330974 0.28355 2.199
-0.323948 0.282664 2.192
-0.31609 0.281005 2.179
-0.309582 0.280506 2.175
-0.304212 0.281038 2.179
-0.297588 0.28041 2.174
-0.291124 0.27991 2.17
-0.285469 0.280183 2.172
-0.280961 0.281618 2.183
-0.275888 0.282537 2.19
-0.268804 0.281391 2.181
-0.262371 0.280889 2.177
-0.256312 0.280775 2.176
-0.250718 0.281176 2.179
-0.244545 0.280932 2.177
-0.238163 0.28043 2.173
-0.231802 0.279927 2.169
-0.226191 0.280327 2.172
-0.219752 0.279695 2.167
-0.214622 0.28074 2.175
-0.208776 0.280881 2.176
-0.203203 0.281409 2.18
-0.196703 0.280647 2.174
-0.190762 0.280658 2.174
-0.185074 0.281056 2.177
-0.179206 0.281196 2.178
-0.17341 0.281465 2.18
-0.167296 0.281217 2.178
-0.161118 0.280839 2.175
-0.154814 0.280203 2.17
-0.149153 0.280728 2.174
-0.143273 0.280866 2.175
-0.137386 0.281004 2.176
-0.131675 0.281529 2.18
-0.126056 0.282311 2.186
-0.120404 0.283093 2.192
-0.114406 0.283101 2.192
-0.10821 0.282591 2.188
-0.102082 0.28221 2.185
-0.0962333 0.282603 2.188
-0.0905744 0.283642 2.196
-0.0845249 0.283518 2.195
-0.0783015 0.282748 2.189
-0.072342 0.282882 2.19
-0.0663465 0.282886 2.19
-0.0604333 0.283278 2.193
-0.054429 0.283281 2.193
-0.048557 0.28406 2.199
-0.0425939 0.28445 2.202
-0.0365479 0.284323 2.201
-0.030521 0.284325 2.201
-0.0245607 0.285102 2.207
-0.0185088 0.284974 2.206
-0.0125018 0.28575 2.212
-0.00644447 0.285751 2.212
-0.00038884 0.287043 2.222
0.00570618 0.287559 2.226
0.0118284 0.288205 2.231
0.017986 0.288979 2.237
0.0241979 0.290011 2.245
0.0305076 0.29156 2.257
0.0367529 0.292074 2.261
0.0432288 0.294009 2.276
0.0496781 0.295298 2.286
0.0562554 0.296974 2.299
0.0628492 0.298392 2.31
0.0695329 0.299938 2.322
0.0763802 0.301871 2.337
-0.353243 0.280908 2.226
-0.344998 0.279159 2.212
-0.3379 0.278293 2.205
-0.330539 0.277175 2.196
-0.324261 0.276939 2.194
-0.317412 0.276199 2.188
-0.310453 0.275332 2.181
-0.30381 0.274717 2.176
-0.29733 0.274228 2.172
-0.291005 0.273865 2.169
-0.285879 0.274638 2.175
-0.281362 0.276042 2.186
-0.276281 0.276941 2.193
-0.268696 0.275315 2.18
-0.262024 0.274571 2.174
-0.256091 0.274586 2.174
-0.250847 0.275358 2.18
-0.244447 0.274866 2.176
-0.237629 0.273869 2.168
-0.231602 0.273756 2.167
-0.225788 0.273895 2.168
-0.21946 0.273402 2.164
-0.213845 0.273794 2.167
-0.208308 0.274311 2.171
-0.203122 0.275334 2.179
-0.196805 0.27484 2.175
-0.190509 0.274345 2.171
-0.185085 0.275114 2.177
-0.179545 0.275757 2.182
-0.174216 0.276778 2.19
-0.168074 0.276535 2.188
-0.161795 0.276039 2.184
-0.155251 0.275038 2.176
-0.149093 0.274667 2.173
-0.143018 0.274423 2.171
-0.137142 0.274558 2.172
-0.13126 0.274692 2.173
-0.125775 0.275711 2.181
-0.120247 0.27673 2.189
-0.114518 0.277369 2.194
-0.108167 0.276491 2.187
-0.101948 0.275865 2.182
-0.0961512 0.276376 2.186
-0.0904974 0.277393 2.194
-0.0845685 0.277652 2.196
-0.0783421 0.276898 2.19
-0.0723134 0.276776 2.189
-0.0662899 0.276654 2.188
-0.0603543 0.27691 2.19
-0.054482 0.277546 2.195
-0.0485821 0.278181 2.2
-0.0424998 0.277805 2.197
-0.0364338 0.277428 2.194
-0.0303703 0.276924 2.19
-0.0244621 0.277937 2.198
-0.0184428 0.277939 2.198
-0.0124687 0.278951 2.206
-0.00644195 0.279584 2.211
-0.000389389 0.281355 2.225
0.00572191 0.28224 2.232
0.0118397 0.282366 2.233
0.0179871 0.28287 2.237
0.024167 0.283501 2.242
0.0305365 0.285649 2.259
0.0368202 0.286406 2.265
0.0432885 0.288174 2.279
0.0496812 0.289056 2.286
0.0563322 0.291076 2.302
0.0629347 0.292463 2.313
0.069657 0.294103 2.326
0.0764175 0.295616 2.338
-0.354371 0.275703 2.233
-0.345327 0.273374 2.214
-0.337764 0.272157 2.204
-0.329804 0.270568 2.191
-0.323834 0.270585 2.191
-0.317429 0.270231 2.188
-0.310896 0.269753 2.184
-0.304105 0.269028 2.178
-0.297893 0.268797 2.176
-0.291692 0.268566 2.174
-0.286946 0.269693 2.183
-0.282021 0.270696 2.191
-0.276926 0.271576 2.198
-0.26945 0.270108 2.186
-0.262761 0.269381 2.18
-0.256222 0.268777 2.175
-0.250516 0.269038 2.177
-0.244123 0.268557 2.173
-0.23808 0.268447 2.172
-0.231828 0.268089 2.169
-0.225696 0.267855 2.167
-0.219473 0.267496 2.164
-0.213758 0.267755 2.166
-0.208032 0.268015 2.168
-0.202574 0.268644 2.173
-0.196454 0.268408 2.171
-0.190433 0.268296 2.17
-0.184586 0.26843 2.171
-0.179473 0.269677 2.181
-0.173749 0.270058 2.184
-0.167777 0.270067 2.184
-0.161137 0.268964 2.175
-0.154975 0.268602 2.172
-0.148896 0.268364 2.17
-0.143224 0.268867 2.174
-0.137213 0.268751 2.173
-0.131267 0.268759 2.173
-0.125667 0.269509 2.179
-0.120144 0.270505 2.187
-0.114316 0.270883 2.19
-0.108025 0.270148 2.184
-0.101907 0.269783 2.181
-0.0960249 0.270036 2.183
-0.0902141 0.270536 2.187
-0.084381 0.271036 2.191
-0.0782037 0.270422 2.186
-0.0721856 0.270303 2.185
-0.0661727 0.270183 2.184
-0.0604131 0.271177 2.192
-0.0545101 0.271675 2.196
-0.0484966 0.271678 2.196
-0.042425 0.27131 2.193
-0.0364194 0.271312 2.193
-0.0303721 0.270943 2.19
-0.0244413 0.271687 2.196
-0.0184523 0.272059 2.199
-0.0124751 0.27305 2.207
-0.00643651 0.273298 2.209
-0.000387837 0.274164 2.216
0.00570687 0.275401 2.226
0.0118563 0.276638 2.236
0.0180364 0.277503 2.243
0.0242224 0.277997 2.247
0.0305519 0.279604 2.26
0.0368711 0.280591 2.268
0.0433481 0.282321 2.282
0.0498363 0.283679 2.293
0.0565559 0.285903 2.311
0.0631017 0.286889 2.319
0.0697809 0.288246 2.33
0.0767489 0.290468 2.348
-0.355024 0.270096 2.237
-0.345032 0.267095 2.212
-0.337475 0.265904 2.202
-0.329971 0.264713 2.192
-0.323703 0.264488 2.19
-0.317155 0.264021 2.186
-0.310485 0.263433 2.181
-0.304121 0.263087 2.178
-0.297772 0.26274 2.175
-0.292244 0.263117 2.178
-0.287355 0.264099 2.186
-0.282036 0.264718 2.191
-0.276059 0.264733 2.191
-0.269341 0.264022 2.185
-0.26386 0.264519 2.189
-0.256825 0.263446 2.18
-0.250644 0.263218 2.178
-0.244136 0.262627 2.173
-0.238422 0.262881 2.175
-0.231948 0.26229 2.17
-0.225604 0.261819 2.166
-0.219485 0.261589 2.164
-0.214165 0.262326 2.17
-0.208331 0.262459 2.171
-0.202585 0.262712 2.173
-0.196284 0.262239 2.169
-0.189829 0.261525 2.163
-0.184171 0.261898 2.166
-0.178825 0.262754 2.173
-0.173202 0.263248 2.177
-0.167249 0.263258 2.177
-0.160998 0.262783 2.173
-0.155126 0.262913 2.174
-0.149248 0.263043 2.175
-0.143627 0.263656 2.18
-0.137663 0.263664 2.18
-0.131335 0.262946 2.174
-0.125444 0.263074 2.175
-0.119931 0.264049 2.183
-0.114113 0.264418 2.186
-0.107982 0.264062 2.183
-0.101819 0.263584 2.179
-0.0959865 0.263953 2.182
-0.0899718 0.263837 2.181
-0.0841933 0.264447 2.186
-0.0779936 0.263726 2.18
-0.0720246 0.26373 2.18
-0.0659948 0.263492 2.178
-0.0601961 0.264222 2.184
-0.0542402 0.264346 2.185
-0.0482345 0.264228 2.184
-0.0424082 0.265199 2.192
-0.0364548 0.265564 2.195
-0.0304987 0.26605 2.199
-0.0244872 0.266172 2.2
-0.0185037 0.266779 2.205
-0.0124702 0.266901 2.206
-0.0064398 0.267385 2.21
-0.00038751 0.267869 2.214
0.00570721 0.269321 2.226
0.0118623 0.270651 2.237
0.0180616 0.271739 2.246
0.0242669 0.272343 2.251
0.0305266 0.273188 2.258
0.0368571 0.274275 2.267
0.0433886 0.27633 2.284
0.0502087 0.279472 2.31
0.0569508 0.281526 2.327
0.0635136 0.282369 2.334
0.0702343 0.283696 2.345
0.0772765 0.285991 2.364
-0.344737 0.260825 2.21
-0.337185 0.259661 2.2
-0.330138 0.258851 2.193
-0.323128 0.258041 2.186
-0.316155 0.257231 2.179
-0.309647 0.256774 2.175
-0.304276 0.257262 2.179
-0.297513 0.256569 2.173
-0.291588 0.256584 2.173
-0.285924 0.256835 2.175
-0.280506 0.257322 2.179
-0.275065 0.257808 2.183
-0.269478 0.258177 2.186
-0.264356 0.259017 2.193
-0.257192 0.25785 2.183
-0.250543 0.257154 2.177
-0.2437 0.256223 2.169
-0.238216 0.256708 2.173
-0.231747 0.25613 2.168
-0.225616 0.255906 2.166
-0.219598 0.255799 2.165
-0.214078 0.256284 2.169
-0.208343 0.256531 2.171
-0.202503 0.256661 2.172
-0.195481 0.255253 2.16
-0.189225 0.254791 2.156
-0.183586 0.255156 2.159
-0.178917 0.256939 2.174
-0.172734 0.256594 2.171
-0.166643 0.256367 2.169
-0.160859 0.256612 2.171
-0.155206 0.257094 2.175
-0.149462 0.257457 2.178
-0.143833 0.258056 2.183
-0.137734 0.257828 2.181
-0.131343 0.257008 2.174
-0.125278 0.256779 2.172
-0.119718 0.257613 2.179
-0.113702 0.257501 2.178
-0.107642 0.257271 2.176
-0.101685 0.257277 2.176
-0.0959921 0.257992 2.182
-0.089977 0.257879 2.181
-0.0841597 0.258357 2.185
-0.0780338 0.257889 2.181
-0.0720288 0.257775 2.18
-0.065938 0.257306 2.176
-0.0600066 0.257428 2.177
-0.0540944 0.257667 2.179
-0.0481048 0.257552 2.178
-0.0422752 0.258382 2.185
-0.036324 0.258621 2.187
-0.0304589 0.259687 2.196
-0.0244998 0.26028 2.201
-0.0185048 0.260754 2.205
-0.0124596 0.260637 2.204
-0.00642561 0.260756 2.205
-0.000387007 0.261466 2.211
0.00569472 0.262648 2.221
0.011863 0.26454 2.237
0.0180707 0.265721 2.247
0.0242684 0.266193 2.251
0.0304473 0.26631 2.252
0.0367779 0.26749 2.262
