# .PCD v.7 - Point Cloud Data file format
VERSION .7
FIELDS x y z
SIZE 4 4 4
TYPE F F F
COUNT 1 1 1
WIDTH 1850
HEIGHT 1
VIEWPOINT 0 0 0 1 0 0 0
POINTS 1850
DATA ascii
-0.13373 -0.100476 2.316
-0.126725 -0.0999582 2.304
-0.120255 -0.0998308 2.301
-0.113406 -0.0993561 2.29
-0.107177 -0.099402 2.291
-0.100678 -0.0991874 2.286
-0.0944131 -0.0991896 2.286
-0.0879546 -0.0989747 2.281
-0.0816665 -0.0989332 2.28
-0.0753504 -0.0988482 2.278
-0.0694089 -0.0992838 2.288
-0.0632192 -0.0994154 2.291
-0.0568885 -0.09933 2.289
-0.0503916 -0.0988973 2.279
-0.0441431 -0.0988984 2.279
-0.0378444 -0.0987691 2.276
-0.0316454 -0.0989001 2.279
-0.0253629 -0.0987705 2.276
-0.019122 -0.098771 2.276
-0.012864 -0.0986412 2.273
-0.00662242 -0.0985112 2.27
-0.000397428 -0.0984245 2.268
0.005832 -0.0985981 2.272
0.012078 -0.098728 2.275
0.0183566 -0.0989447 2.28
0.0246301 -0.099031 2.282
0.030928 -0.0991605 2.285
0.0371608 -0.099073 2.283
0.0434586 -0.0991589 2.285
0.0497671 -0.0992446 2.287
0.0559639 -0.0991132 2.284
0.0619261 -0.0986345 2.273
0.0681275 -0.0985897 2.272
0.0744541 -0.0987182 2.275
0.0811514 -0.0992806 2.288
0.0877669 -0.0996692 2.297
0.0942266 -0.0998407 2.301
0.100751 -0.100055 2.306
0.107164 -0.10014 2.308
0.114079 -0.100658 2.32
0.120955 -0.101089 2.33
0.128104 -0.101694 2.344
0.13642 -0.103123 2.377
0.146961 -0.106026 2.444
0.155541 -0.107324 2.474
0.162711 -0.107581 2.48
0.169708 -0.107707 2.483
0.176721 -0.107834 2.486
0.183823 -0.108003 2.49
0.191482 -0.108476 2.501
-0.315148 -0.0980818 2.13
-0.306726 -0.0972595 2.112
-0.29897 -0.0966211 2.098
-0.292129 -0.096259 2.09
-0.285878 -0.0960809 2.086
-0.279917 -0.0959949 2.084
-0.273966 -0.0959087 2.082
-0.267638 -0.0956842 2.077
-0.261841 -0.0956439 2.076
-0.256665 -0.0958339 2.08
-0.251829 -0.096162 2.087
-0.210069 -0.110237 2.391
-0.201483 -0.109135 2.367
-0.19377 -0.108448 2.352
-0.187173 -0.10836 2.35
-0.18097 -0.108503 2.353
-0.174454 -0.108461 2.352
-0.167086 -0.107865 2.339
-0.160475 -0.107731 2.336
-0.154012 -0.107688 2.335
-0.147616 -0.107692 2.335
-0.140374 -0.10705 2.321
-0.133496 -0.106638 2.312
-0.126722 -0.106272 2.304
-0.120305 -0.106182 2.302
-0.113849 -0.106047 2.299
-0.107596 -0.106096 2.3
-0.101249 -0.106052 2.299
-0.0947826 -0.10587 2.295
-0.0884153 -0.10578 2.293
-0.0819869 -0.105597 2.289
-0.0754147 -0.105184 2.28
-0.0692556 -0.105324 2.283
-0.062997 -0.105326 2.283
-0.0568623 -0.105558 2.288
-0.0503905 -0.105144 2.279
-0.044142 -0.105145 2.279
-0.0378768 -0.1051 2.278
-0.0316863 -0.105285 2.282
-0.0254403 -0.105332 2.283
-0.019172 -0.105286 2.282
-0.012892 -0.105102 2.278
-0.00663685 -0.104964 2.275
-0.00039847 -0.104918 2.274
0.00584727 -0.105103 2.278
0.0121255 -0.105379 2.284
0.0183722 -0.105287 2.282
0.0245971 -0.105148 2.279
0.0308325 -0.105101 2.278
0.0371274 -0.105238 2.281
0.0434956 -0.105514 2.287
0.0497442 -0.105467 2.286
0.0559136 -0.105281 2.282
0.0618701 -0.104772 2.271
0.0682758 -0.105047 2.277
0.0746814 -0.105276 2.282
0.0813624 -0.105828 2.294
0.0879177 -0.106149 2.301
0.0944291 -0.106378 2.306
0.10088 -0.106514 2.309
0.107301 -0.106603 2.311
0.114076 -0.107016 2.32
0.121056 -0.107567 2.332
0.12832 -0.108302 2.348
0.136761 -0.109913 2.383
0.147138 -0.112861 2.447
0.155286 -0.113919 2.47
0.162511 -0.114238 2.477
0.169568 -0.114418 2.481
0.176717 -0.114645 2.486
0.183967 -0.114917 2.492
0.191325 -0.115236 2.499
-0.31455 -0.103714 2.126
-0.306429 -0.10294 2.11
-0.298679 -0.102264 2.096
-0.291843 -0.10188 2.088
-0.284775 -0.101399 2.078
-0.278299 -0.101112 2.072
-0.271986 -0.100874 2.067
-0.266472 -0.100929 2.068
-0.260952 -0.100984 2.069
-0.255549 -0.101088 2.071
-0.250013 -0.101143 2.072
-0.244825 -0.101344 2.076
-0.239614 -0.101545 2.08
-0.209537 -0.116492 2.385
-0.201649 -0.115716 2.369
-0.194012 -0.115037 2.355
-0.187805 -0.115188 2.358
-0.18112 -0.115046 2.355
-0.17445 -0.114904 2.352
-0.167368 -0.114469 2.343
-0.160677 -0.114277 2.339
-0.154008 -0.114086 2.335
-0.147107 -0.113699 2.327
-0.139947 -0.113067 2.314
-0.133262 -0.112777 2.308
-0.126774 -0.112634 2.305
-0.120772 -0.11293 2.311
-0.114292 -0.112786 2.308
-0.10778 -0.112594 2.304
-0.101158 -0.112254 2.297
-0.0948629 -0.112257 2.297
-0.0884902 -0.112161 2.295
-0.0821282 -0.112066 2.293
-0.0754129 -0.111432 2.28
-0.0690112 -0.11119 2.275
-0.0627471 -0.111143 2.274
-0.0565875 -0.111291 2.277
-0.0503892 -0.11139 2.279
-0.0440828 -0.111245 2.276
-0.0378426 -0.111246 2.276
-0.0316439 -0.111393 2.279
-0.0254843 -0.111785 2.287
-0.0191967 -0.111688 2.285
-0.01292 -0.11159 2.283
-0.00665419 -0.111493 2.281
-0.000399512 -0.111444 2.28
0.00584969 -0.111395 2.279
0.0121146 -0.111542 2.282
0.0183476 -0.111394 2.279
0.0245533 -0.111198 2.275
0.030764 -0.1111 2.273
0.0371264 -0.11149 2.281
0.0434755 -0.111733 2.286
0.0498082 -0.111879 2.289
0.0559367 -0.111584 2.283
0.0621138 -0.111436 2.28
0.068454 -0.111581 2.283
0.0748759 -0.111824 2.288
0.0814667 -0.112262 2.297
0.0879155 -0.112455 2.301
0.0942221 -0.112453 2.301
0.100747 -0.112694 2.306
0.107298 -0.112936 2.311
0.114024 -0.113324 2.319
0.120846 -0.113761 2.328
0.128208 -0.114638 2.346
0.137217 -0.116833 2.391
0.147074 -0.119517 2.446
0.155094 -0.120539 2.467
0.162441 -0.120975 2.476
0.169564 -0.121215 2.481
0.176784 -0.121504 2.487
0.183741 -0.121598 2.489
0.191167 -0.121984 2.497
-0.313803 -0.109272 2.121
-0.30526 -0.1083 2.102
-0.297959 -0.10774 2.091
-0.290578 -0.107129 2.079
-0.283672 -0.106672 2.07
-0.277218 -0.10637 2.064
-0.27119 -0.106222 2.061
-0.265564 -0.106228 2.061
-0.259937 -0.106234 2.061
-0.254679 -0.106395 2.064
-0.248801 -0.106298 2.062
-0.24305 -0.106253 2.061
-0.237189 -0.106156 2.059
-0.232013 -0.106368 2.063
-0.209707 -0.123128 2.387
-0.201048 -0.121843 2.362
-0.19409 -0.121539 2.356
-0.187641 -0.121544 2.356
-0.180962 -0.121394 2.353
-0.173927 -0.120986 2.345
-0.167221 -0.120784 2.341
-0.160536 -0.120582 2.337
-0.154004 -0.120483 2.335
-0.14704 -0.120022 2.326
-0.140004 -0.119458 2.315
-0.133201 -0.119049 2.307
-0.126936 -0.119104 2.308
-0.120821 -0.119314 2.312
-0.114734 -0.119575 2.317
-0.108152 -0.11932 2.312
-0.101596 -0.119065 2.307
-0.0950669 -0.118809 2.302
-0.0885265 -0.118502 2.296
-0.0820186 -0.118195 2.29
-0.0754109 -0.117681 2.28
-0.0690398 -0.117476 2.276
-0.0626351 -0.117168 2.27
-0.0563873 -0.117118 2.269
-0.0502994 -0.117429 2.275
-0.0440429 -0.117379 2.274
-0.037825 -0.117432 2.275
-0.0315875 -0.117432 2.275
-0.0254168 -0.117743 2.281
-0.0191542 -0.117692 2.28
-0.0129027 -0.117692 2.28
-0.00666277 -0.117899 2.284
-0.000400553 -0.118002 2.286
0.0058598 -0.117848 2.283
0.0121196 -0.117847 2.283
0.0183552 -0.117692 2.28
0.0245958 -0.11764 2.279
0.0307903 -0.117433 2.275
0.0371743 -0.117896 2.284
0.0435314 -0.118153 2.289
0.0498287 -0.118204 2.29
0.0561068 -0.118202 2.29
0.0623301 -0.118097 2.288
0.0686022 -0.118096 2.288
0.0749394 -0.118197 2.29
0.0814292 -0.118505 2.296
0.0878368 -0.118657 2.299
0.0941377 -0.118655 2.299
0.100744 -0.119013 2.306
0.10762 -0.11963 2.318
0.114169 -0.119833 2.322
0.120998 -0.120295 2.331
0.127986 -0.120859 2.342
0.137099 -0.123281 2.389
0.14683 -0.126012 2.442
0.154964 -0.127195 2.465
0.162306 -0.127655 2.474
0.169559 -0.128012 2.481
0.176637 -0.128214 2.485
0.18381 -0.128467 2.49
0.191009 -0.12872 2.495
-0.3038 -0.113507 2.092
-0.29667 -0.112972 2.082
-0.289593 -0.112437 2.072
-0.282569 -0.111901 2.062
-0.276405 -0.111691 2.058
-0.270394 -0.111535 2.055
-0.264913 -0.111596 2.056
-0.259048 -0.111495 2.054
-0.253562 -0.111555 2.055
-0.247829 -0.111508 2.054
-0.242101 -0.11146 2.053
-0.236146 -0.111303 2.05
-0.23077 -0.111418 2.052
-0.225711 -0.111695 2.057
-0.208735 -0.129067 2.376
-0.201042 -0.128312 2.362
-0.194002 -0.127937 2.355
-0.187955 -0.128214 2.36
-0.180649 -0.127621 2.349
-0.173625 -0.127191 2.341
-0.166859 -0.126924 2.336
-0.160119 -0.126657 2.331
-0.153736 -0.126662 2.331
-0.146783 -0.126177 2.322
-0.140182 -0.125963 2.318
-0.13337 -0.125532 2.31
-0.126932 -0.125427 2.308
-0.120714 -0.125539 2.31
-0.114484 -0.125651 2.312
-0.108195 -0.125709 2.313
-0.101549 -0.125331 2.306
-0.0949817 -0.125008 2.3
-0.0883313 -0.124521 2.291
-0.0819447 -0.124361 2.288
-0.075475 -0.124037 2.282
-0.0690075 -0.123658 2.275
-0.0626058 -0.123334 2.269
-0.056336 -0.123227 2.267
-0.050276 -0.123609 2.274
-0.0439836 -0.123447 2.271
-0.0377741 -0.123503 2.272
-0.0315172 -0.123395 2.27
-0.0253492 -0.123668 2.275
-0.0191117 -0.123668 2.275
-0.0128967 -0.123886 2.279
-0.00665675 -0.12405 2.282
-0.000400191 -0.124158 2.284
0.00585194 -0.123941 2.28
0.0121246 -0.124158 2.284
0.018411 -0.124321 2.287
0.0247139 -0.124483 2.29
0.0309383 -0.124265 2.286
0.0372058 -0.124264 2.286
0.0433781 -0.123991 2.281
0.049762 -0.124316 2.287
0.0561787 -0.12464 2.293
0.0625191 -0.124748 2.295
0.0685703 -0.124311 2.287
0.0748392 -0.124309 2.287
0.0811787 -0.124415 2.289
0.0876052 -0.12463 2.293
0.0939714 -0.124737 2.295
0.10061 -0.125169 2.303
0.107385 -0.125709 2.313
0.114018 -0.126032 2.319
0.120839 -0.126518 2.328
0.127764 -0.127058 2.338
0.136866 -0.129609 2.385
0.146766 -0.132648 2.441
0.155023 -0.134002 2.466
0.162367 -0.134487 2.475
0.169691 -0.134917 2.483
0.176846 -0.135184 2.488
0.183805 -0.135288 2.49
0.190928 -0.1355 2.494
-0.303357 -0.119059 2.089
-0.295522 -0.118211 2.074
-0.288048 -0.117478 2.061
-0.281603 -0.117143 2.055
-0.275324 -0.116866 2.05
-0.269466 -0.116759 2.048
-0.263746 -0.116709 2.047
-0.257906 -0.116602 2.045
-0.252692 -0.11678 2.048
-0.246978 -0.11673 2.047
-0.24174 -0.116907 2.05
-0.235679 -0.116686 2.046
-0.230201 -0.116749 2.047
-0.224717 -0.116812 2.048
-0.21994 -0.138534 2.428
-0.208993 -0.135744 2.379
-0.201037 -0.13478 2.362
-0.194079 -0.134443 2.356
-0.187392 -0.134278 2.353
-0.180413 -0.133883 2.346
-0.173398 -0.133432 2.338
-0.166783 -0.133265 2.335
-0.160183 -0.133099 2.332
-0.153864 -0.133161 2.333
-0.147032 -0.132765 2.326
-0.140601 -0.132712 2.325
-0.133597 -0.132089 2.314
-0.127149 -0.131978 2.312
-0.120606 -0.131753 2.308
-0.11448 -0.131985 2.312
-0.108286 -0.13216 2.315
-0.101854 -0.132049 2.313
-0.095268 -0.131709 2.307
-0.0885601 -0.131141 2.297
-0.0819423 -0.13063 2.288
-0.075539 -0.130403 2.284
-0.0691269 -0.13012 2.279
-0.0627971 -0.129951 2.276
-0.0564338 -0.129667 2.271
-0.0502303 -0.129726 2.272
-0.0440211 -0.129784 2.273
-0.037773 -0.129728 2.272
-0.0315996 -0.129958 2.276
-0.0253373 -0.129844 2.274
-0.0190943 -0.129788 2.273
-0.0128567 -0.129731 2.272
-0.0066303 -0.129789 2.273
-0.000399303 -0.130131 2.279
0.00584663 -0.130074 2.278
0.0121348 -0.130531 2.286
0.0184186 -0.130645 2.288
0.0247887 -0.131158 2.297
0.0310592 -0.131043 2.295
0.0372861 -0.130813 2.291
0.0433958 -0.130298 2.282
0.0496736 -0.130354 2.283
0.0561036 -0.130752 2.29
0.0623811 -0.13075 2.29
0.0686283 -0.130691 2.289
0.0748043 -0.130518 2.286
0.0811054 -0.130573 2.287
0.0875645 -0.130856 2.292
0.0941324 -0.131253 2.299
0.100782 -0.131707 2.307
0.107336 -0.131989 2.312
0.113867 -0.132214 2.316
0.120836 -0.132896 2.328
0.127924 -0.133634 2.341
0.137206 -0.136484 2.391
0.146882 -0.139449 2.443
0.155019 -0.140757 2.466
0.162428 -0.141323 2.476
0.169755 -0.141775 2.484
0.176983 -0.142112 2.49
0.183947 -0.142221 2.492
0.190999 -0.142387 2.495
0.197273 -0.141982 2.488
-0.302913 -0.124593 2.086
-0.294374 -0.123406 2.066
-0.287062 -0.122698 2.054
-0.280362 -0.122227 2.046
-0.274376 -0.122056 2.043
-0.268143 -0.121765 2.038
-0.262322 -0.121652 2.036
-0.256511 -0.12154 2.034
-0.251451 -0.121786 2.038
-0.246489 -0.122092 2.043
-0.241616 -0.122458 2.049
-0.235788 -0.122345 2.047
-0.230083 -0.122292 2.046
-0.224491 -0.122298 2.046
-0.219969 -0.122903 2.056
-0.209778 -0.142796 2.388
-0.201712 -0.141726 2.37
-0.194403 -0.141134 2.36
-0.187626 -0.1409 2.356
-0.180485 -0.140368 2.347
-0.173541 -0.139954 2.34
-0.166706 -0.139601 2.334
-0.159973 -0.139306 2.329
-0.153529 -0.139251 2.328
-0.146838 -0.138957 2.323
-0.140536 -0.139021 2.324
-0.133767 -0.138606 2.317
-0.127145 -0.138311 2.312
-0.120498 -0.137956 2.306
-0.114081 -0.13784 2.304
-0.108002 -0.138143 2.309
-0.101675 -0.138146 2.309
-0.0953478 -0.138149 2.309
-0.0886731 -0.137613 2.3
-0.0819757 -0.136958 2.289
-0.0755698 -0.136721 2.285
-0.0690338 -0.136184 2.276
-0.06274 -0.136067 2.274
-0.0564321 -0.135889 2.271
-0.0502951 -0.13613 2.275
-0.0440972 -0.136251 2.277
-0.0378051 -0.136073 2.274
-0.0316125 -0.136254 2.277
-0.02537 -0.136255 2.277
-0.0190853 -0.135956 2.272
-0.0128563 -0.135957 2.272
-0.00663594 -0.136136 2.275
-0.000399817 -0.136555 2.282
0.00585672 -0.136555 2.282
0.0121185 -0.136615 2.283
0.0183938 -0.136734 2.285
0.0247232 -0.137092 2.291
0.0310312 -0.137211 2.293
0.0372362 -0.136911 2.288
0.0433565 -0.136431 2.28
0.0495633 -0.13631 2.278
0.0559059 -0.136548 2.282
0.0622702 -0.136785 2.286
0.0686262 -0.136963 2.289
0.0749657 -0.13708 2.291
0.0812448 -0.137078 2.291
0.0875618 -0.137135 2.292
0.0940887 -0.137491 2.298
0.100604 -0.137787 2.303
0.107147 -0.138083 2.308
0.113717 -0.138379 2.313
0.120521 -0.138914 2.322
0.128029 -0.140166 2.343
0.137833 -0.143692 2.402
0.147358 -0.146619 2.451
0.155265 -0.147751 2.47
0.162554 -0.148224 2.478
0.169818 -0.148638 2.485
0.177049 -0.148992 2.491
0.184016 -0.149106 2.493
0.19084 -0.1491 2.493
0.195919 -0.147779 2.471
-0.300436 -0.129236 2.069
-0.292656 -0.128307 2.054
-0.285237 -0.127503 2.041
-0.27871 -0.127074 2.034
-0.272488 -0.12677 2.029
-0.266688 -0.126653 2.027
-0.261026 -0.126598 2.026
-0.255621 -0.126668 2.027
-0.25095 -0.127113 2.034
-0.246361 -0.12762 2.042
-0.241845 -0.12819 2.051
-0.236127 -0.128134 2.05
-0.230301 -0.128016 2.048
-0.224375 -0.127835 2.045
-0.219535 -0.12828 2.052
-0.210738 -0.150022 2.399
-0.202131 -0.148528 2.375
-0.194479 -0.147658 2.361
-0.187381 -0.147164 2.353
-0.180403 -0.146732 2.346
-0.173462 -0.1463 2.339
-0.166773 -0.146055 2.335
-0.160311 -0.145997 2.334
-0.15392 -0.146002 2.334
-0.147466 -0.145944 2.333
-0.140834 -0.145699 2.329
-0.133993 -0.145203 2.321
-0.127196 -0.144706 2.313
-0.120651 -0.14446 2.309
-0.114127 -0.144213 2.305
-0.107905 -0.144342 2.307
-0.101672 -0.144471 2.309
-0.0953861 -0.144536 2.31
-0.088863 -0.144226 2.305
-0.0821522 -0.143541 2.294
-0.0757327 -0.143293 2.29
-0.0692743 -0.14292 2.284
-0.0628208 -0.142484 2.277
-0.0565297 -0.142361 2.275
-0.0503377 -0.142488 2.277
-0.044212 -0.142865 2.283
-0.0378538 -0.142491 2.277
-0.0316671 -0.142742 2.281
-0.0253803 -0.142555 2.278
-0.0191267 -0.142494 2.277
-0.0128672 -0.142306 2.274
-0.00664156 -0.142494 2.277
-0.000399804 -0.142807 2.282
0.00586167 -0.142932 2.284
0.0121553 -0.143308 2.29
0.0184174 -0.143182 2.288
0.0247008 -0.143244 2.289
0.030922 -0.142993 2.285
0.0372024 -0.143054 2.286
0.0433551 -0.142677 2.28
0.0496052 -0.142676 2.28
0.0558796 -0.142737 2.281
0.0622682 -0.143048 2.286
0.0685941 -0.143171 2.288
0.0748978 -0.143231 2.289
0.0812068 -0.143291 2.29
0.0874827 -0.143288 2.29
0.0939629 -0.143598 2.295
0.100645 -0.144158 2.304
0.107329 -0.144655 2.312
0.114008 -0.14509 2.319
0.120621 -0.145399 2.324
0.128189 -0.146771 2.346
0.138116 -0.150583 2.407
0.147414 -0.153394 2.452
0.155261 -0.154515 2.47
0.162615 -0.155073 2.479
0.169813 -0.155443 2.485
0.176759 -0.155563 2.487
0.183715 -0.155682 2.489
0.190681 -0.155802 2.491
0.197261 -0.155608 2.488
-0.307844 -0.135667 2.081
-0.298685 -0.134111 2.057
-0.291223 -0.133272 2.044
-0.28439 -0.132694 2.035
-0.277879 -0.132246 2.028
-0.271674 -0.131928 2.023
-0.266154 -0.131936 2.023
-0.260503 -0.131879 2.022
-0.255361 -0.132083 2.025
-0.250449 -0.132417 2.03
-0.245991 -0.133011 2.039
-0.241955 -0.133867 2.052
-0.236695 -0.13407 2.055
-0.230743 -0.133881 2.052
-0.224368 -0.133432 2.045
-0.218993 -0.133569 2.047
-0.214753 -0.134424 2.06
-0.210555 -0.156459 2.397
-0.202125 -0.15503 2.375
-0.194391 -0.154057 2.36
-0.187136 -0.15341 2.35
-0.180166 -0.152959 2.343
-0.173308 -0.152573 2.337
-0.166839 -0.152514 2.336
-0.160306 -0.152388 2.334
-0.154113 -0.152589 2.337
-0.147398 -0.152268 2.332
-0.140648 -0.151881 2.326
-0.133874 -0.151428 2.319
-0.126917 -0.150714 2.308
-0.120594 -0.150719 2.308
-0.114074 -0.150461 2.304
-0.107902 -0.150661 2.307
-0.101536 -0.150599 2.306
-0.0953003 -0.150733 2.308
-0.0888601 -0.15054 2.305
-0.0824359 -0.150347 2.302
-0.0759617 -0.150023 2.297
-0.0694539 -0.149568 2.29
-0.0629567 -0.149048 2.282
-0.0566023 -0.148789 2.278
-0.050336 -0.148725 2.277
-0.0441912 -0.149053 2.282
-0.0378525 -0.148728 2.277
-0.0315966 -0.148664 2.276
-0.0253238 -0.148469 2.273
-0.0191261 -0.148731 2.277
-0.0129177 -0.149124 2.283
-0.00666467 -0.149255 2.285
-0.000400317 -0.149255 2.285
0.00585891 -0.149124 2.283
0.0121761 -0.149842 2.294
0.0184571 -0.149776 2.293
0.0247324 -0.14971 2.292
0.0309074 -0.149187 2.284
0.0371361 -0.149055 2.282
0.0432966 -0.148727 2.277
0.0495818 -0.148856 2.279
0.0559268 -0.149116 2.283
0.0623752 -0.149571 2.29
0.0685918 -0.149438 2.288
0.0747972 -0.149305 2.286
0.0810623 -0.149302 2.286
0.0873652 -0.149365 2.287
0.093837 -0.149688 2.292
0.100467 -0.150208 2.3
0.107187 -0.150792 2.309
0.113857 -0.151245 2.316
0.120409 -0.151503 2.32
0.127912 -0.15287 2.341
0.13771 -0.156718 2.4
0.147349 -0.160044 2.451
0.15513 -0.161149 2.468
0.162413 -0.161666 2.476
0.169466 -0.161922 2.48
0.176256 -0.161916 2.48
0.183119 -0.161975 2.481
0.190216 -0.16223 2.485
0.198048 -0.163073 2.498
-0.309166 -0.141968 2.09
-0.29766 -0.13926 2.05
-0.290217 -0.138386 2.037
-0.283403 -0.137784 2.028
-0.277323 -0.137521 2.024
-0.271398 -0.137325 2.021
-0.265882 -0.137334 2.021
-0.260366 -0.137342 2.021
-0.254975 -0.137418 2.022
-0.249948 -0.137698 2.026
-0.245381 -0.13825 2.034
-0.241712 -0.139345 2.05
-0.236803 -0.139761 2.056
-0.230624 -0.139428 2.051
-0.224142 -0.138892 2.043
-0.218238 -0.138695 2.04
-0.2136 -0.139314 2.049
-0.21946 -0.164782 2.423
-0.209758 -0.162408 2.388
-0.201863 -0.161327 2.372
-0.194302 -0.16045 2.359
-0.18721 -0.159912 2.351
-0.18016 -0.159374 2.343
-0.173228 -0.158904 2.336
-0.166619 -0.158705 2.333
-0.160232 -0.158711 2.333
-0.153844 -0.158716 2.333
-0.147203 -0.158449 2.329
-0.14016 -0.157706 2.318
-0.13358 -0.157439 2.314
-0.126638 -0.156695 2.303
-0.12059 -0.157039 2.308
-0.11407 -0.156771 2.304
-0.108132 -0.157319 2.312
-0.101665 -0.157119 2.309
-0.0953384 -0.157122 2.309
-0.0889342 -0.156989 2.307
-0.0825405 -0.156856 2.305
-0.0761906 -0.156791 2.304
-0.0697549 -0.156521 2.3
-0.0632304 -0.155979 2.292
-0.0567992 -0.155573 2.286
-0.0503785 -0.155098 2.279
-0.044209 -0.155372 2.283
-0.0379177 -0.155237 2.281
-0.0316233 -0.155034 2.278
-0.0253229 -0.154695 2.273
-0.019117 -0.1549 2.276
-0.0129172 -0.155377 2.283
-0.00665861 -0.155377 2.283
-0.000399777 -0.15531 2.282
0.00586127 -0.155446 2.284
0.0121863 -0.156262 2.296
0.0184886 -0.156329 2.297
0.0247747 -0.156261 2.296
0.0308928 -0.155375 2.283
0.0371348 -0.155306 2.282
0.0432951 -0.154964 2.277
0.0496889 -0.155439 2.284
0.0560229 -0.155641 2.287
0.062373 -0.155843 2.29
0.0684096 -0.155296 2.282
0.0745656 -0.15509 2.279
0.0808468 -0.155155 2.28
0.087324 -0.155561 2.286
0.0938338 -0.155966 2.292
0.100551 -0.156643 2.302
0.107044 -0.156911 2.306
0.113755 -0.157452 2.314
0.120613 -0.158128 2.324
0.128345 -0.159825 2.349
0.138164 -0.163835 2.408
0.147464 -0.166891 2.453
0.155062 -0.167839 2.467
0.162342 -0.168378 2.475
0.169392 -0.168644 2.479
0.176392 -0.168842 2.482
0.18326 -0.168904 2.483
0.190669 -0.169442 2.491
0.198358 -0.170184 2.502
-0.308121 -0.147188 2.083
-0.298086 -0.145077 2.053
-0.290066 -0.143885 2.036
-0.283394 -0.143329 2.028
-0.277588 -0.143197 2.026
-0.27206 -0.143206 2.026
-0.2664 -0.143144 2.025
-0.260487 -0.14294 2.022
-0.254589 -0.142737 2.019
-0.249323 -0.142886 2.021
-0.244528 -0.143319 2.027
-0.240525 -0.144246 2.04
-0.236104 -0.144961 2.05
-0.230166 -0.144757 2.047
-0.223695 -0.144199 2.039
-0.217695 -0.143923 2.035
-0.213072 -0.144567 2.044
-0.209048 -0.168379 2.38
-0.20126 -0.167324 2.365
-0.193801 -0.166482 2.353
-0.186805 -0.165994 2.346
-0.179846 -0.165505 2.339
-0.173222 -0.165299 2.336
-0.166756 -0.165234 2.335
-0.159952 -0.164815 2.329
-0.153509 -0.16475 2.328
-0.146819 -0.164401 2.323
-0.140034 -0.163911 2.316
-0.133576 -0.163774 2.314
-0.126798 -0.163213 2.306
-0.120638 -0.16343 2.309
-0.114165 -0.163222 2.306
-0.108268 -0.163863 2.315
-0.10197 -0.163937 2.316
-0.0955827 -0.16387 2.315
-0.0890467 -0.163519 2.31
-0.0825018 -0.163098 2.304
-0.0759895 -0.162676 2.298
-0.0695704 -0.162395 2.294
-0.0631454 -0.162044 2.289
-0.0567226 -0.161621 2.283
-0.0503767 -0.16134 2.279
-0.04413 -0.161342 2.279
-0.037933 -0.161555 2.282
-0.031636 -0.161344 2.279
-0.0253888 -0.161345 2.279
-0.0191331 -0.161275 2.278
-0.0129055 -0.161488 2.281
-0.00665254 -0.161489 2.281
-0.000400989 -0.162055 2.289
0.00587646 -0.162126 2.29
0.0121753 -0.162409 2.294
0.0184477 -0.162267 2.292
0.0247415 -0.162337 2.293
0.0309053 -0.161698 2.284
0.037166 -0.161697 2.284
0.0433696 -0.161483 2.281
0.0497741 -0.161977 2.288
0.0560943 -0.162117 2.29
0.0622891 -0.161902 2.287
0.0683172 -0.161334 2.279
0.0745303 -0.16126 2.278
0.0808439 -0.161399 2.28
0.0872445 -0.161679 2.284
0.0937486 -0.162101 2.29
0.100329 -0.162593 2.297
0.106947 -0.163084 2.304
0.113701 -0.163718 2.313
0.120764 -0.164704 2.327
0.128668 -0.166682 2.355
0.139077 -0.17156 2.424
0.14782 -0.174032 2.459
0.155371 -0.174947 2.472
0.162271 -0.175083 2.474
0.169249 -0.175289 2.477
0.176386 -0.175637 2.482
0.183401 -0.175843 2.485
0.190815 -0.176403 2.493
0.19851 -0.177174 2.504
-0.306928 -0.152295 2.075
-0.297641 -0.15047 2.05
-0.290199 -0.149525 2.037
-0.283525 -0.148947 2.029
-0.277579 -0.148737 2.026
-0.272051 -0.148746 2.026
-0.266523 -0.148755 2.026
-0.260736 -0.148617 2.024
-0.254706 -0.148332 2.02
-0.249191 -0.148341 2.02
-0.243917 -0.148496 2.022
-0.239456 -0.149165 2.031
-0.23506 -0.149908 2.041
-0.229709 -0.150063 2.043
-0.223359 -0.149557 2.036
-0.217581 -0.149417 2.034
-0.21296 -0.150086 2.043
-0.209041 -0.174892 2.38
-0.201594 -0.174091 2.369
-0.194288 -0.173363 2.359
-0.187515 -0.173076 2.355
-0.180224 -0.172275 2.344
-0.173438 -0.171914 2.339
-0.166536 -0.171405 2.332
-0.159877 -0.171117 2.328
-0.153174 -0.170755 2.323
-0.146497 -0.170393 2.318
-0.139787 -0.169958 2.312
-0.133456 -0.169963 2.312
-0.127068 -0.169894 2.311
-0.121104 -0.170413 2.318
-0.114705 -0.170344 2.317
-0.108592 -0.170716 2.322
-0.102098 -0.170499 2.319
-0.0956205 -0.170282 2.316
-0.0890048 -0.169771 2.309
-0.0822839 -0.168966 2.298
-0.0759206 -0.168821 2.296
-0.0694162 -0.168309 2.289
-0.0630327 -0.168018 2.285
-0.056646 -0.167652 2.28
-0.050397 -0.167654 2.28
-0.0441284 -0.167583 2.279
-0.0379482 -0.167878 2.283
-0.0316487 -0.167659 2.28
-0.0254436 -0.167954 2.284
-0.0191492 -0.167661 2.28
-0.0129106 -0.167809 2.282
-0.00665812 -0.167883 2.283
-0.00040185 -0.168692 2.294
0.00589421 -0.168912 2.297
0.0121908 -0.168912 2.297
0.0184551 -0.168617 2.293
0.0246866 -0.168249 2.288
0.0309176 -0.168027 2.285
0.0371321 -0.167805 2.282
0.043349 -0.167656 2.28
0.0497288 -0.168096 2.286
0.0559943 -0.168094 2.286
0.0621506 -0.167798 2.282
0.0681948 -0.16728 2.275
0.074593 -0.167645 2.28
0.0810536 -0.168084 2.286
0.0874705 -0.168375 2.29
0.093827 -0.168518 2.292
0.100238 -0.168735 2.295
0.107036 -0.16954 2.306
0.113992 -0.170492 2.319
0.121382 -0.171958 2.339
0.129428 -0.174159 2.369
0.139703 -0.179005 2.435
0.148355 -0.181426 2.468
0.155931 -0.182376 2.481
0.162789 -0.182444 2.482
0.169721 -0.182585 2.484
0.176735 -0.182799 2.487
0.183911 -0.18316 2.492
0.191191 -0.183594 2.498
0.198899 -0.184395 2.509
-0.305439 -0.157205 2.065
-0.297631 -0.156074 2.05
-0.290901 -0.155475 2.042
-0.284773 -0.15518 2.038
-0.278803 -0.154961 2.035
-0.272848 -0.154742 2.032
-0.266908 -0.154523 2.029
-0.261242 -0.154456 2.028
-0.255202 -0.154161 2.024
-0.249429 -0.154017 2.022
-0.243667 -0.153874 2.02
-0.23874 -0.154263 2.025
-0.234245 -0.154957 2.034
-0.229701 -0.155651 2.043
-0.22346 -0.155202 2.037
-0.21768 -0.155058 2.035
-0.21264 -0.155447 2.04
-0.208506 -0.180948 2.374
-0.201246 -0.180269 2.365
-0.194364 -0.179896 2.36
-0.187349 -0.179369 2.353
-0.179987 -0.178461 2.341
-0.173061 -0.177934 2.334
-0.16653 -0.177788 2.332
-0.15994 -0.177566 2.329
-0.153234 -0.17719 2.324
-0.146302 -0.17651 2.315
-0.139782 -0.176287 2.312
-0.133508 -0.176368 2.313
-0.127558 -0.176907 2.32
-0.121361 -0.17714 2.323
-0.115196 -0.17745 2.327
-0.108447 -0.176844 2.319
-0.101874 -0.176467 2.314
-0.0953279 -0.176089 2.309
-0.0889244 -0.17594 2.307
-0.082245 -0.175181 2.297
-0.0757193 -0.17465 2.29
-0.0692619 -0.174196 2.284
-0.0629199 -0.173969 2.281
-0.0566438 -0.173895 2.28
-0.0504171 -0.173974 2.281
-0.044088 -0.17367 2.277
-0.0378138 -0.17352 2.275
-0.0316198 -0.17375 2.278
-0.0254649 -0.174361 2.286
-0.0192157 -0.174514 2.288
-0.012978 -0.174973 2.294
-0.00669578 -0.175126 2.296
-0.000403762 -0.175812 2.305
0.00591707 -0.175888 2.306
0.0122062 -0.17543 2.3
0.0184624 -0.174972 2.294
0.0246964 -0.17459 2.289
0.0309435 -0.174436 2.287
0.0371144 -0.173977 2.281
0.0433474 -0.1739 2.28
0.0495311 -0.173669 2.277
0.0558697 -0.173972 2.281
0.0620393 -0.173741 2.278
0.0683121 -0.173815 2.279
0.0745574 -0.173812 2.279
0.0809797 -0.17419 2.284
0.0873908 -0.174492 2.288
0.0937416 -0.174641 2.29
0.100147 -0.174866 2.293
0.106939 -0.175701 2.304
0.11389 -0.176688 2.317
0.121118 -0.17798 2.334
0.129314 -0.180491 2.367
0.139813 -0.185824 2.437
0.14841 -0.188258 2.469
0.15605 -0.18932 2.483
0.16298 -0.189466 2.485
0.169852 -0.189536 2.486
0.176799 -0.189682 2.488
0.183831 -0.189904 2.491
0.190801 -0.19005 2.493
0.198099 -0.1905 2.499
-0.305428 -0.162849 2.065
-0.298201 -0.161992 2.054
-0.291746 -0.16153 2.048
-0.285881 -0.161382 2.046
-0.279889 -0.161156 2.043
-0.273644 -0.160771 2.038
-0.267293 -0.160307 2.032
-0.26149 -0.160159 2.03
-0.255823 -0.16009 2.029
-0.24979 -0.159783 2.025
-0.243779 -0.159477 2.021
-0.238731 -0.159801 2.025
-0.234582 -0.160757 2.037
-0.230704 -0.161949 2.052
-0.224988 -0.161879 2.051
-0.218635 -0.161335 2.044
-0.213466 -0.161659 2.048
-0.208235 -0.187207 2.371
-0.200898 -0.186425 2.361
-0.194192 -0.186196 2.358
-0.187501 -0.185966 2.355
-0.180134 -0.185026 2.343
-0.173128 -0.184401 2.335
-0.166523 -0.18417 2.332
-0.159865 -0.183861 2.328
-0.153228 -0.183551 2.324
-0.146233 -0.182767 2.314
-0.139837 -0.182694 2.313
-0.13333 -0.182462 2.31
-0.127389 -0.18302 2.317
-0.121356 -0.183499 2.323
-0.11529 -0.183978 2.329
-0.10863 -0.183508 2.323
-0.101826 -0.182723 2.313
-0.0953654 -0.182489 2.31
-0.0890365 -0.182493 2.31
-0.082564 -0.182181 2.306
-0.0759477 -0.181473 2.297
-0.0694715 -0.181002 2.291
-0.0630554 -0.180609 2.286
-0.0569148 -0.181007 2.291
-0.0504151 -0.180219 2.281
-0.0440281 -0.179668 2.274
-0.0378123 -0.179748 2.275
-0.031674 -0.180303 2.282
-0.0255084 -0.180936 2.29
-0.0192905 -0.18149 2.297
-0.0130341 -0.182044 2.304
-0.00673051 -0.18236 2.308
-0.000404096 -0.182281 2.307
0.00590914 -0.181965 2.303
0.0121898 -0.181491 2.297
0.0184214 -0.180858 2.289
0.0246631 -0.18062 2.286
0.0309288 -0.180619 2.286
0.0370967 -0.180144 2.28
0.0433266 -0.180063 2.279
0.0493986 -0.179429 2.271
0.055696 -0.179664 2.274
0.0618734 -0.179503 2.272
0.0682794 -0.179975 2.278
0.0745217 -0.179972 2.278
0.0809055 -0.180285 2.282
0.0871964 -0.180361 2.283
0.0935332 -0.180515 2.285
0.099837 -0.18059 2.286
0.106424 -0.181139 2.293
0.113246 -0.182004 2.304
0.120491 -0.183421 2.322
0.128927 -0.186418 2.36
0.139348 -0.191863 2.429
0.148284 -0.194858 2.467
0.155982 -0.196037 2.482
0.163171 -0.196505 2.488
0.17005 -0.196577 2.489
0.177006 -0.196728 2.491
0.183971 -0.196879 2.493
0.190641 -0.196714 2.491
-0.309263 -0.170614 2.091
-0.299497 -0.168341 2.063
-0.292875 -0.16778 2.056
-0.287547 -0.167954 2.058
-0.28166 -0.167801 2.056
-0.275245 -0.167322 2.05
-0.268467 -0.166597 2.041
-0.261996 -0.166036 2.034
-0.256192 -0.165882 2.032
-0.250151 -0.165565 2.028
-0.244373 -0.165411 2.026
-0.239547 -0.16591 2.032
-0.235955 -0.167307 2.049
-0.220869 -0.19924 2.439
-0.209632 -0.195 2.387
-0.20123 -0.193211 2.365
-0.194019 -0.192484 2.356
-0.186936 -0.191838 2.348
-0.179589 -0.190865 2.336
-0.172825 -0.190463 2.331
-0.166588 -0.190634 2.333
-0.160065 -0.190477 2.331
-0.153288 -0.189993 2.325
-0.146544 -0.189509 2.319
-0.140375 -0.18976 2.322
-0.133786 -0.189438 2.318
-0.127383 -0.189362 2.317
-0.120881 -0.189122 2.314
-0.114939 -0.18978 2.322
-0.108672 -0.189948 2.324
-0.102086 -0.189544 2.319
-0.095568 -0.189221 2.315
-0.0893412 -0.18947 2.318
-0.0829903 -0.189474 2.318
-0.0762422 -0.188496 2.306
-0.0695596 -0.187518 2.294
-0.0632735 -0.187521 2.294
-0.0571858 -0.188178 2.302
-0.0506562 -0.187362 2.292
-0.0442006 -0.186629 2.283
-0.0377941 -0.185895 2.274
-0.0317005 -0.186713 2.284
-0.025552 -0.187532 2.294
-0.0193317 -0.188187 2.302
-0.0130449 -0.188515 2.306
-0.00671274 -0.188188 2.302
-0.000403028 -0.188107 2.301
0.00589094 -0.187698 2.296
0.0121522 -0.187207 2.29
0.0184126 -0.187043 2.288
0.0246621 -0.186878 2.286
0.0309004 -0.186714 2.284
0.0370626 -0.186222 2.278
0.0432678 -0.186057 2.276
0.0493531 -0.185482 2.269
0.0556203 -0.185644 2.271
0.0618981 -0.185805 2.273
0.0683066 -0.186293 2.279
0.0745187 -0.186208 2.278
0.0806895 -0.186041 2.276
0.0869637 -0.186119 2.277
0.0933657 -0.186443 2.281
0.0997456 -0.186684 2.284
0.106281 -0.18717 2.29
0.113143 -0.188146 2.302
0.120175 -0.189286 2.316
0.128648 -0.192468 2.355
0.139228 -0.198347 2.427
0.148278 -0.20161 2.467
0.155975 -0.20283 2.482
0.163098 -0.203232 2.487
0.170043 -0.203389 2.489
0.177141 -0.203708 2.493
0.184185 -0.203946 2.496
-0.295855 -0.17517 2.077
-0.289353 -0.174675 2.071
-0.283293 -0.174433 2.068
-0.27698 -0.174022 2.063
-0.270167 -0.173273 2.054
-0.263274 -0.17244 2.044
-0.257191 -0.172112 2.04
-0.251128 -0.171785 2.036
-0.246173 -0.172216 2.041
-0.242603 -0.17366 2.058
-0.22077 -0.205827 2.438
-0.209623 -0.20153 2.387
-0.201222 -0.199681 2.365
-0.193353 -0.198254 2.348
-0.18669 -0.198008 2.345
-0.179581 -0.197256 2.336
-0.173337 -0.197432 2.338
-0.166724 -0.197186 2.335
-0.160127 -0.196939 2.332
-0.153414 -0.196524 2.327
-0.146917 -0.196361 2.325
-0.140732 -0.19662 2.328
-0.134185 -0.196373 2.325
-0.127433 -0.195787 2.318
-0.120981 -0.195623 2.316
-0.114984 -0.19622 2.323
-0.109135 -0.197154 2.334
-0.102742 -0.197158 2.334
-0.0960181 -0.196486 2.326
-0.0896844 -0.196575 2.327
-0.0831658 -0.196241 2.323
-0.0766027 -0.195737 2.317
-0.0698902 -0.194727 2.305
-0.0633811 -0.194138 2.298
-0.0572331 -0.194647 2.304
-0.0506983 -0.193805 2.294
-0.0443536 -0.193554 2.291
-0.0380086 -0.193217 2.287
-0.0318379 -0.19381 2.294
-0.0257068 -0.194994 2.308
-0.0194316 -0.195502 2.314
-0.0130387 -0.194743 2.305
-0.00670954 -0.194405 2.301
-0.000402486 -0.194152 2.298
0.00588299 -0.193729 2.293
0.0121516 -0.193475 2.29
0.018436 -0.193559 2.291
0.0247042 -0.193474 2.29
0.0309397 -0.193219 2.287
0.0370936 -0.192626 2.28
0.043209 -0.192033 2.273
0.0493293 -0.191609 2.268
0.0555689 -0.191691 2.269
0.0619228 -0.192111 2.274
0.0683037 -0.19253 2.279
0.074581 -0.192612 2.28
0.080828 -0.192609 2.28
0.0872274 -0.192943 2.284
0.0936074 -0.193192 2.287
0.0998725 -0.193188 2.287
0.106416 -0.193691 2.293
0.113335 -0.194784 2.306
0.120325 -0.195877 2.319
0.128588 -0.198828 2.354
0.139624 -0.20558 2.434
0.148572 -0.208783 2.472
0.15622 -0.209959 2.486
0.163354 -0.210375 2.491
0.170241 -0.210452 2.492
0.177489 -0.210952 2.498
-0.274629 -0.181848 2.088
-0.26687 -0.180465 2.072
-0.260206 -0.179779 2.064
-0.254202 -0.179528 2.061
-0.209175 -0.207623 2.382
-0.201214 -0.20615 2.365
-0.193427 -0.204764 2.349
-0.186762 -0.20451 2.346
-0.179497 -0.203559 2.335
-0.173256 -0.203741 2.337
-0.16636 -0.203138 2.33
-0.160189 -0.203407 2.333
-0.153671 -0.203239 2.331
-0.147479 -0.203507 2.334
-0.140847 -0.203165 2.33
-0.134294 -0.202909 2.327
-0.127373 -0.202043 2.317
-0.120923 -0.201874 2.315
-0.115028 -0.202664 2.324
-0.109131 -0.20354 2.334
-0.102958 -0.203981 2.339
-0.0960965 -0.203026 2.328
-0.0897961 -0.203205 2.33
-0.083377 -0.203121 2.329
-0.0770291 -0.203212 2.33
-0.0706452 -0.203215 2.33
-0.064123 -0.202782 2.325
-0.0573548 -0.201389 2.309
-0.0507403 -0.200258 2.296
-0.044371 -0.199911 2.292
-0.0381398 -0.200174 2.295
-0.0319615 -0.200874 2.303
-0.0258282 -0.202271 2.319
-0.0194224 -0.201748 2.313
-0.0130268 -0.200877 2.303
-0.00668592 -0.200005 2.293
-0.000401418 -0.199918 2.292
0.00586991 -0.199569 2.288
0.0121299 -0.199394 2.286
0.018403 -0.199481 2.287
0.0246815 -0.199567 2.288
0.0309113 -0.199304 2.285
0.0370595 -0.198692 2.278
0.0432071 -0.198254 2.273
0.0494141 -0.198165 2.272
0.05564 -0.198162 2.272
0.0619473 -0.198422 2.275
0.0682708 -0.19868 2.278
0.0746432 -0.199026 2.282
0.0810017 -0.199284 2.285
0.0876055 -0.200066 2.294
0.0940126 -0.200323 2.297
0.100392 -0.200493 2.299
0.106921 -0.200925 2.304
0.113773 -0.201879 2.315
0.120684 -0.202833 2.326
0.128747 -0.205531 2.357
0.140363 -0.213373 2.447
0.149167 -0.216419 2.482
0.156654 -0.217372 2.493
0.163675 -0.217626 2.496
0.170439 -0.217532 2.495
0.177268 -0.217524 2.495
-0.208552 -0.213509 2.375
-0.20061 -0.211989 2.358
-0.192925 -0.210649 2.343
-0.186674 -0.210837 2.345
-0.179874 -0.210396 2.34
-0.173619 -0.210583 2.342
-0.166638 -0.209872 2.334
-0.160044 -0.209609 2.331
-0.15373 -0.209706 2.332
-0.147473 -0.209892 2.334
-0.141143 -0.209989 2.335
-0.134635 -0.209815 2.333
-0.127862 -0.209191 2.326
-0.121388 -0.209017 2.324
-0.115221 -0.209382 2.328
-0.109079 -0.209837 2.333
-0.102953 -0.210381 2.339
-0.0962986 -0.209846 2.333
-0.0899848 -0.21003 2.335
-0.0834091 -0.209584 2.33
-0.0772241 -0.210127 2.336
-0.0710362 -0.21076 2.343
-0.0645338 -0.210494 2.34
-0.0576751 -0.208877 2.322
-0.0506275 -0.206091 2.291
-0.0443884 -0.206273 2.293
-0.0383043 -0.207354 2.305
-0.0321682 -0.208526 2.318
-0.025905 -0.209247 2.326
-0.0194467 -0.208348 2.316
-0.0130375 -0.207359 2.305
-0.00668853 -0.20637 2.294
-0.000401224 -0.2061 2.291
0.00587991 -0.20619 2.292
0.01214 -0.20583 2.288
0.0184022 -0.205739 2.287
0.0246265 -0.205378 2.283
0.0308423 -0.205107 2.28
0.0369927 -0.204566 2.274
0.0431862 -0.204384 2.272
0.0494119 -0.204382 2.272
0.0556375 -0.20438 2.272
0.0618629 -0.204377 2.272
0.0681479 -0.204554 2.274
0.074509 -0.204911 2.278
0.0809981 -0.205537 2.285
0.0876398 -0.206433 2.295
0.0940085 -0.206608 2.297
0.100344 -0.206694 2.298
0.106778 -0.206959 2.301
0.113473 -0.207674 2.309
0.120419 -0.208748 2.321
0.129123 -0.21261 2.364
0.140644 -0.220518 2.452
0.149701 -0.224019 2.491
0.157212 -0.225001 2.502
0.164258 -0.225264 2.505
0.170773 -0.224807 2.5
-0.208631 -0.220096 2.376
-0.200771 -0.218623 2.36
-0.193245 -0.217427 2.347
-0.186666 -0.217251 2.345
-0.180019 -0.216981 2.342
-0.173833 -0.217267 2.345
-0.166988 -0.216719 2.339
-0.160243 -0.216263 2.334
-0.153657 -0.215992 2.331
-0.147403 -0.216184 2.333
-0.140895 -0.216005 2.331
-0.134802 -0.216475 2.336
-0.128021 -0.215832 2.329
-0.121591 -0.215745 2.328
-0.115315 -0.215936 2.33
-0.109214 -0.216497 2.336
-0.102993 -0.216873 2.34
-0.0963768 -0.216414 2.335
-0.0900963 -0.216696 2.338
-0.0836558 -0.216608 2.337
-0.077485 -0.21726 2.344
-0.071427 -0.218376 2.356
-0.0649721 -0.218379 2.356
-0.0583431 -0.217733 2.349
-0.0515312 -0.21616 2.332
-0.0448896 -0.214957 2.319
-0.0384355 -0.214403 2.313
-0.032139 -0.214683 2.316
-0.0258815 -0.215426 2.324
-0.019471 -0.214963 2.319
-0.0130426 -0.213759 2.306
-0.00669406 -0.212832 2.296
-0.000400856 -0.212184 2.289
0.00587194 -0.212184 2.289
0.0121023 -0.211442 2.281
0.018337 -0.211255 2.279
0.0245714 -0.211162 2.278
0.0308679 -0.211531 2.282
0.0370724 -0.211252 2.279
0.0432222 -0.210786 2.274
0.0493662 -0.210413 2.27
0.0556595 -0.210689 2.273
0.0618328 -0.210501 2.271
0.0680249 -0.210405 2.27
0.0742767 -0.210495 2.271
0.0808172 -0.211325 2.28
0.0872539 -0.211785 2.285
0.0937177 -0.212244 2.29
0.100121 -0.212517 2.293
0.106726 -0.213161 2.3
0.113369 -0.213805 2.307
0.120517 -0.215283 2.323
0.128681 -0.218335 2.356
-0.208972 -0.226974 2.38
-0.201272 -0.225648 2.366
-0.193237 -0.223845 2.347
-0.186339 -0.223282 2.341
-0.179857 -0.223195 2.34
-0.173751 -0.223584 2.344
-0.167123 -0.223306 2.341
-0.16003 -0.22236 2.331
-0.153716 -0.222462 2.332
-0.147207 -0.222279 2.33
-0.141191 -0.222858 2.336
-0.135026 -0.223246 2.34
-0.128565 -0.223157 2.339
-0.121899 -0.222685 2.334
-0.115409 -0.2225 2.332
-0.10935 -0.223173 2.339
-0.103032 -0.223369 2.341
-0.0964548 -0.222992 2.337
-0.090015 -0.222901 2.336
-0.0836877 -0.223096 2.338
-0.0775144 -0.223768 2.345
-0.0712115 -0.224153 2.349
-0.0648863 -0.224538 2.353
-0.0585639 -0.225018 2.358
-0.0521916 -0.225403 2.362
-0.0456037 -0.224832 2.356
-0.0387992 -0.22283 2.335
-0.032304 -0.222164 2.328
-0.025858 -0.221593 2.322
-0.0194533 -0.221117 2.317
-0.0130589 -0.220354 2.309
-0.00671123 -0.219687 2.302
-0.000401887 -0.219019 2.295
0.00588449 -0.218923 2.294
0.0121282 -0.218159 2.286
0.0183602 -0.217777 2.282
0.0245703 -0.217394 2.278
0.0308935 -0.217965 2.284
0.0371031 -0.217677 2.281
0.0432582 -0.217198 2.276
0.0493421 -0.216528 2.269
0.0556568 -0.216907 2.273
0.0618843 -0.216905 2.273
0.0681116 -0.216901 2.273
0.0742405 -0.216612 2.27
0.0807071 -0.217276 2.277
0.0870207 -0.217463 2.279
0.0936315 -0.218317 2.288
0.100204 -0.218981 2.295
0.106814 -0.219644 2.302
0.113315 -0.22002 2.306
0.1202 -0.221064 2.317
0.12791 -0.223444 2.342
-0.210104 -0.234756 2.393
-0.201603 -0.232509 2.37
-0.193475 -0.230556 2.35
-0.186489 -0.229878 2.343
-0.179695 -0.229397 2.338
-0.173224 -0.229307 2.337
-0.16683 -0.229315 2.337
-0.160366 -0.229224 2.336
-0.15417 -0.229526 2.339
-0.147768 -0.229534 2.339
-0.141124 -0.229148 2.335
-0.134731 -0.229155 2.335
-0.128174 -0.228866 2.332
-0.121945 -0.229167 2.335
-0.115354 -0.22878 2.331
-0.109298 -0.229473 2.338
-0.102983 -0.229674 2.34
-0.096574 -0.229679 2.34
-0.0902419 -0.22988 2.342
-0.0840774 -0.230571 2.349
-0.077742 -0.230869 2.352
-0.0712687 -0.230775 2.351
-0.0650211 -0.231465 2.358
-0.0587597 -0.232254 2.366
-0.0524763 -0.23314 2.375
-0.0458144 -0.232357 2.367
-0.0391297 -0.231181 2.355
-0.032344 -0.228827 2.331
-0.0257788 -0.227258 2.315
-0.0194356 -0.227259 2.315
-0.0130752 -0.226965 2.312
-0.00672257 -0.226376 2.306
-0.000402043 -0.225395 2.296
0.00586368 -0.224413 2.286
0.0121011 -0.223922 2.281
0.018303 -0.223332 2.275
0.0245906 -0.223822 2.28
0.030865 -0.224017 2.282
0.0370851 -0.223819 2.28
0.0432751 -0.223522 2.277
0.0494919 -0.223422 2.276
0.0558011 -0.223714 2.279
0.0620175 -0.223613 2.278
0.0681982 -0.223413 2.276
0.0743677 -0.223214 2.274
0.0807741 -0.223701 2.279
0.0868638 -0.223304 2.275
0.0933815 -0.223987 2.282
0.100024 -0.224865 2.291
0.106855 -0.226038 2.303
0.113555 -0.226818 2.311
0.120506 -0.22799 2.323
0.128177 -0.230339 2.347
-0.210094 -0.241297 2.393
-0.201424 -0.238786 2.368
-0.193548 -0.237081 2.351
-0.18648 -0.236284 2.343
-0.179456 -0.235486 2.335
-0.172697 -0.23499 2.33
-0.166536 -0.235301 2.333
-0.160427 -0.235712 2.337
-0.154426 -0.236325 2.343
-0.147761 -0.235929 2.339
-0.141117 -0.235533 2.335
-0.134667 -0.235439 2.334
-0.128717 -0.236252 2.342
-0.122409 -0.23646 2.344
-0.115546 -0.235558 2.335
-0.109339 -0.235967 2.339
-0.103022 -0.236174 2.341
-0.0969819 -0.237087 2.35
-0.0904686 -0.23689 2.348
-0.084288 -0.237601 2.355
-0.0778374 -0.237605 2.355
-0.0714773 -0.237911 2.358
-0.0650454 -0.238015 2.359
-0.0587071 -0.238523 2.364
-0.0523412 -0.23903 2.369
-0.0458509 -0.239033 2.369
-0.0392773 -0.23853 2.364
-0.0324534 -0.23601 2.339
-0.0257887 -0.23369 2.316
-0.0194346 -0.23359 2.315
-0.0130916 -0.233591 2.315
-0.00672223 -0.232684 2.306
-0.000401848 -0.231574 2.295
0.00586339 -0.230666 2.286
0.0121217 -0.230564 2.285
0.0183343 -0.229958 2.279
0.0245786 -0.229957 2.279
0.0307417 -0.22935 2.273
0.0369531 -0.229248 2.272
0.0432539 -0.229649 2.276
0.049533 -0.229849 2.278
0.0558473 -0.230149 2.281
0.0620961 -0.230146 2.281
0.0682248 -0.229739 2.277
0.0744949 -0.229836 2.278
0.080841 -0.230135 2.281
0.087165 -0.230333 2.283
0.0933359 -0.230126 2.281
0.0999321 -0.230929 2.289
0.106757 -0.232134 2.301
0.113746 -0.233541 2.315
0.120811 -0.234948 2.329
0.128335 -0.23706 2.35
-0.209118 -0.246698 2.382
-0.201329 -0.245155 2.367
-0.193538 -0.243507 2.351
-0.18663 -0.242895 2.345
-0.179832 -0.242386 2.34
-0.173356 -0.242292 2.339
-0.167099 -0.242507 2.341
-0.160899 -0.242826 2.344
-0.154682 -0.243145 2.347
-0.147817 -0.242427 2.34
-0.14117 -0.24202 2.336
-0.134949 -0.242338 2.339
-0.128931 -0.24307 2.346
-0.122664 -0.243387 2.349
-0.115639 -0.24215 2.337
-0.109334 -0.242363 2.339
-0.103149 -0.242886 2.344
-0.0973485 -0.244445 2.359
-0.0907338 -0.244036 2.355
-0.0845343 -0.244766 2.362
-0.0781309 -0.244977 2.364
-0.0718375 -0.245603 2.37
-0.0651524 -0.244881 2.363
-0.058729 -0.245091 2.365
-0.0523606 -0.245612 2.37
-0.0459453 -0.246029 2.374
-0.0393085 -0.245202 2.366
-0.032535 -0.243028 2.345
-0.0258653 -0.240749 2.323
-0.019484 -0.240543 2.321
-0.0130966 -0.240026 2.316
-0.00672772 -0.239197 2.308
-0.000401477 -0.237643 2.293
0.00586566 -0.237021 2.287
0.0121264 -0.236917 2.286
0.0183655 -0.236605 2.283
0.0245882 -0.236293 2.28
0.0307672 -0.235773 2.275
0.0369675 -0.235564 2.273
0.0431947 -0.235562 2.273
0.0494652 -0.235767 2.275
0.055722 -0.235868 2.276
0.0619568 -0.235865 2.276
0.0681015 -0.235551 2.273
0.074393 -0.235755 2.275
0.0806951 -0.235958 2.277
0.0870461 -0.236264 2.28
0.0932904 -0.23626 2.28
0.0998398 -0.23698 2.287
0.106659 -0.238219 2.299
0.113937 -0.240285 2.319
0.121168 -0.242041 2.336
0.12871 -0.24421 2.357
-0.201404 -0.25173 2.368
-0.193529 -0.249932 2.351
-0.186621 -0.249304 2.345
-0.180053 -0.249101 2.343
-0.174088 -0.249748 2.349
-0.167662 -0.249756 2.349
-0.161166 -0.249658 2.348
-0.154543 -0.249348 2.345
-0.147683 -0.248611 2.338
-0.141344 -0.248725 2.339
-0.135346 -0.249476 2.346
-0.129309 -0.250227 2.353
-0.123024 -0.250553 2.356
-0.116029 -0.249389 2.345
-0.109702 -0.249608 2.347
-0.103495 -0.250145 2.352
-0.097426 -0.251108 2.361
-0.0908061 -0.250687 2.357
-0.0846373 -0.251543 2.365
-0.0783912 -0.252291 2.372
-0.0721975 -0.253359 2.382
-0.0653696 -0.252192 2.371
-0.0588998 -0.252302 2.372
-0.0526009 -0.253262 2.381
-0.0460784 -0.253265 2.381
-0.0394228 -0.252416 2.373
-0.0326304 -0.250184 2.352
-0.0259642 -0.248058 2.332
-0.0194494 -0.246464 2.317
-0.0130393 -0.245295 2.306
-0.00670988 -0.24487 2.302
-0.000401632 -0.244019 2.294
0.00588587 -0.244125 2.295
0.0121523 -0.243699 2.291
0.0184048 -0.243379 2.288
0.0246192 -0.242846 2.283
0.0307927 -0.242207 2.277
0.0369168 -0.24146 2.27
0.0430975 -0.241246 2.268
0.049267 -0.24103 2.266
0.0555967 -0.241559 2.271
0.0618175 -0.241556 2.271
0.068068 -0.241659 2.272
0.0743237 -0.241762 2.273
0.0805846 -0.241864 2.274
0.0871561 -0.242817 2.283
0.0936538 -0.243451 2.289
0.100228 -0.24419 2.296
0.106932 -0.245142 2.305
0.114128 -0.24705 2.323
0.121681 -0.24949 2.346
0.129523 -0.252249 2.372
-0.208834 -0.259389 2.379
-0.201904 -0.258854 2.374
-0.19393 -0.256902 2.356
-0.187248 -0.256585 2.353
-0.180428 -0.256049 2.348
-0.174376 -0.256603 2.353
-0.167582 -0.256067 2.348
-0.16102 -0.255857 2.346
-0.154469 -0.255647 2.344
-0.147865 -0.255328 2.341
-0.141639 -0.255663 2.344
-0.135224 -0.25567 2.344
-0.129027 -0.256113 2.348
-0.122861 -0.256666 2.353
-0.116369 -0.256563 2.352
-0.109836 -0.256351 2.35
-0.103622 -0.256902 2.355
-0.0974621 -0.257671 2.362
-0.0912636 -0.258439 2.369
-0.084776 -0.258444 2.369
-0.078354 -0.258667 2.371
-0.0718906 -0.25878 2.372
-0.0654213 -0.258892 2.373
-0.0591449 -0.259878 2.382
-0.0528411 -0.260972 2.392
-0.0463662 -0.261411 2.396
-0.0394539 -0.259122 2.375
-0.0325732 -0.256178 2.348
-0.0259183 -0.253997 2.328
-0.0193812 -0.251926 2.309
-0.0129764 -0.250399 2.295
-0.00670078 -0.250836 2.299
-0.000402485 -0.250836 2.299
0.00589581 -0.250836 2.299
0.0121517 -0.249963 2.291
0.0184119 -0.249744 2.289
0.0246503 -0.249415 2.286
0.0308181 -0.24865 2.279
0.0368986 -0.247557 2.269
0.0430572 -0.247228 2.266
0.0492861 -0.247334 2.267
0.0556427 -0.247986 2.273
0.0618687 -0.247983 2.273
0.0681543 -0.248198 2.275
0.0743198 -0.247976 2.273
0.0805095 -0.247862 2.272
0.0869988 -0.248622 2.279
0.0936897 -0.249817 2.29
0.100353 -0.250793 2.299
0.107112 -0.251879 2.309
0.114171 -0.253509 2.324
0.121726 -0.256012 2.347
-0.208384 -0.26533 2.374
-0.201553 -0.264893 2.37
-0.194167 -0.263674 2.359
-0.187716 -0.263684 2.359
-0.180419 -0.262464 2.348
-0.174144 -0.262697 2.35
-0.167002 -0.261588 2.34
-0.160737 -0.261821 2.342
-0.154395 -0.261941 2.343
-0.14792 -0.261837 2.342
-0.141148 -0.261174 2.336
-0.134928 -0.261517 2.339
-0.129185 -0.262866 2.351
-0.123115 -0.263655 2.358
-0.116561 -0.263438 2.356
-0.110158 -0.263556 2.357
-0.10388 -0.264009 2.361
-0.0975394 -0.26435 2.364
-0.0912202 -0.264802 2.368
-0.0846283 -0.264472 2.365
-0.0781185 -0.264364 2.364
-0.0717958 -0.264928 2.369
-0.0654729 -0.265602 2.375
-0.0592659 -0.266948 2.387
-0.0531917 -0.269299 2.408
-0.0465959 -0.269302 2.408
-0.0395016 -0.265949 2.378
-0.0324882 -0.261925 2.342
-0.0259057 -0.260249 2.327
-0.019355 -0.257902 2.306
-0.0129757 -0.256672 2.295
-0.00668293 -0.256449 2.293
-0.000402639 -0.257232 2.3
0.00589549 -0.25712 2.299
0.0121563 -0.256337 2.292
0.0183465 -0.255106 2.281
0.024595 -0.255105 2.281
0.0307893 -0.254656 2.277
0.0369454 -0.254095 2.272
0.0431308 -0.253869 2.27
0.0493052 -0.253643 2.268
0.0557866 -0.25487 2.279
0.0620831 -0.255091 2.281
0.0683903 -0.255311 2.283
0.074512 -0.254859 2.279
0.0806824 -0.254632 2.277
0.0870705 -0.255074 2.281
0.0935211 -0.255628 2.286
0.10013 -0.256518 2.294
0.106921 -0.257742 2.305
0.11387 -0.25919 2.318
0.120994 -0.260861 2.333
-0.208373 -0.271814 2.374
-0.201628 -0.271482 2.371
-0.194568 -0.270691 2.364
-0.187706 -0.270128 2.359
-0.180486 -0.268993 2.349
-0.17369 -0.26843 2.344
-0.166993 -0.267981 2.34
-0.160797 -0.268334 2.343
-0.154518 -0.268571 2.345
-0.147912 -0.268236 2.342
-0.14102 -0.267328 2.334
-0.134748 -0.267564 2.336
-0.129233 -0.269404 2.352
-0.123056 -0.269984 2.357
-0.116604 -0.269991 2.357
-0.109824 -0.269195 2.35
-0.103919 -0.270576 2.362
-0.0974928 -0.270696 2.363
-0.0910226 -0.270701 2.363
-0.0844089 -0.270248 2.359
-0.0780481 -0.270596 2.362
-0.0719433 -0.271975 2.374
-0.0656347 -0.27278 2.381
-0.0595109 -0.274617 2.397
-0.0532771 -0.276339 2.412
-0.0467868 -0.277029 2.418
-0.039516 -0.272563 2.379
-0.0325558 -0.268899 2.347
-0.0259266 -0.266838 2.329
-0.0194294 -0.265235 2.315
-0.0130202 -0.263861 2.303
-0.00669713 -0.263289 2.298
-0.000402616 -0.263518 2.3
0.00587978 -0.262716 2.293
0.0121397 -0.262257 2.289
0.0183214 -0.260996 2.278
0.0245829 -0.261224 2.28
0.0307741 -0.260764 2.276
0.0370246 -0.260877 2.277
0.0432614 -0.260875 2.277
0.0494111 -0.260414 2.273
0.0557835 -0.261099 2.279
0.0620797 -0.261324 2.281
0.0683865 -0.26155 2.283
0.0746059 -0.261431 2.282
0.0807133 -0.260969 2.278
0.087142 -0.261537 2.283
0.0935568 -0.26199 2.287
0.100168 -0.262901 2.295
0.106869 -0.263926 2.304
0.113618 -0.264951 2.313
0.121143 -0.267579 2.336
-0.208625 -0.27865 2.377
-0.201617 -0.277957 2.371
-0.19464 -0.277265 2.365
-0.188014 -0.277041 2.363
-0.18063 -0.275644 2.351
-0.173755 -0.27495 2.345
-0.167198 -0.274725 2.343
-0.160994 -0.275086 2.346
-0.15451 -0.274978 2.345
-0.147967 -0.274751 2.343
-0.141254 -0.274173 2.338
-0.135144 -0.274767 2.343
-0.129226 -0.27583 2.352
-0.123206 -0.276775 2.36
-0.116746 -0.276782 2.36
-0.110286 -0.276789 2.36
-0.103957 -0.277146 2.363
-0.0975286 -0.277269 2.364
-0.0907479 -0.276336 2.356
-0.08444 -0.27681 2.36
-0.078242 -0.277753 2.368
-0.0724544 -0.280456 2.391
-0.066072 -0.281163 2.397
-0.0597806 -0.282457 2.408
-0.0532962 -0.283047 2.413
-0.047055 -0.285278 2.432
-0.039547 -0.279298 2.381
-0.032651 -0.276133 2.354
-0.0259585 -0.273554 2.332
-0.0194116 -0.271327 2.313
-0.0130082 -0.26992 2.301
-0.00668801 -0.269217 2.295
-0.000401018 -0.268748 2.291
0.00584612 -0.267457 2.28
0.0120807 -0.267222 2.278
0.0182721 -0.266517 2.272
0.0245815 -0.267455 2.28
0.03084 -0.26757 2.281
0.0371363 -0.26792 2.284
0.043259 -0.267097 2.277
0.0493214 -0.266156 2.269
0.0555601 -0.26627 2.27
0.0619673 -0.267088 2.277
0.0683527 -0.267671 2.282
0.0746671 -0.267901 2.284
0.0808151 -0.267545 2.281
0.0872135 -0.268009 2.285
0.0936334 -0.268473 2.289
0.100337 -0.269641 2.299
0.107048 -0.270691 2.308
0.114201 -0.272678 2.325
-0.209141 -0.28586 2.383
-0.202116 -0.285152 2.377
-0.194876 -0.284083 2.368
-0.188242 -0.283854 2.366
-0.181004 -0.282665 2.356
-0.173819 -0.281475 2.346
-0.167402 -0.281484 2.346
-0.161054 -0.281614 2.347
-0.154765 -0.281863 2.349
-0.148275 -0.281751 2.348
